# .PCD v0.7 - Point Cloud Data file format
VERSION 0.7
FIELDS x y z
SIZE 4 4 4
TYPE F F F
COUNT 1 1 1
WIDTH 1375
HEIGHT 1
VIEWPOINT 0 0 0 1 0 0 0
POINTS 1375
DATA ascii
0.42090845 0.0031732442 -0.065327518
0.4210687 0.0022650033 -0.066331893
0.42134959 0.0012314708 -0.068333685
0.43096721 -0.13248682 -0.094433285
0.43100926 -0.13331906 -0.094440706
0.43105134 -0.13415134 -0.094448134
0.43122679 -0.13536036 -0.095455244
0.43126893 -0.1361942 -0.09546268
0.4313111 -0.13702805 -0.095470116
0.43135324 -0.13786192 -0.095477551
0.43152907 -0.13907887 -0.096484683
0.4315713 -0.1399143 -0.096492134
0.43161353 -0.14074974 -0.096499585
0.4317897 -0.14197306 -0.097506769
0.43183202 -0.14281009 -0.097514234
0.43187433 -0.14364713 -0.097521693
0.43191665 -0.14448418 -0.097529158
0.43195897 -0.14532122 -0.097536623
0.43213561 -0.14655407 -0.09854389
0.43217799 -0.14739271 -0.09855137
0.4322204 -0.14823134 -0.098558851
0.43239737 -0.14947055 -0.099566177
0.43243983 -0.15031077 -0.099573672
0.43261704 -0.15155481 -0.10058109
0.4326596 -0.1523966 -0.1005886
0.43270215 -0.15323843 -0.10059611
0.43296495 -0.1561756 -0.10161858
0.4330076 -0.15701899 -0.1016261
0.43318552 -0.15827732 -0.1026336
0.43336362 -0.15953882 -0.10364112
0.43340641 -0.1603854 -0.10364867
0.43358475 -0.1616517 -0.10465629
0.43362764 -0.16249989 -0.10466386
0.43380618 -0.16377093 -0.10567147
0.43384916 -0.1646207 -0.10567905
0.43402797 -0.16589652 -0.1066867
0.43420693 -0.16717555 -0.10769438
0.43425006 -0.16802849 -0.10770199
0.43442929 -0.16931227 -0.10870972
0.43447247 -0.17016682 -0.10871733
0.43465194 -0.17145541 -0.10972515
0.43483156 -0.17274714 -0.11073295
0.43487492 -0.17360486 -0.1107406
0.43505478 -0.17490138 -0.11174844
0.43523481 -0.17620108 -0.1127563
0.435415 -0.17750397 -0.11376426
0.4354586 -0.17836648 -0.11377195
0.43563902 -0.17967413 -0.11477988
0.43568268 -0.18053821 -0.11478759
0.43572637 -0.1814023 -0.1147953
0.39035258 0.14617653 0.1351179
0.3903763 0.1457071 0.13511372
0.39040005 0.14523765 0.13510953
0.39042377 0.14476822 0.13510534
0.39034885 0.14401995 0.13609527
0.39037248 0.14355211 0.1360911
0.39039615 0.14308426 0.13608693
0.39041978 0.14261641 0.13608275
0.38962781 0.13374749 0.14696608
0.38967335 0.13284679 0.14695805
0.38969612 0.13239644 0.14695403
0.38971886 0.1319461 0.14695002
0.38974163 0.13149576 0.146946
0.3897644 0.1310454 0.14694199
0.38978717 0.13059507 0.14693797
0.38980994 0.13014473 0.14693396
0.38983271 0.12969437 0.14692993
0.4075087 0.11237634 -0.0017157116
0.40754345 0.11168889 -0.0017218417
0.4075782 0.11100144 -0.0017279719
0.40761295 0.11031399 -0.0017341021
0.4076477 0.10962653 -0.0017402323
0.40768245 0.10893908 -0.0017463625
0.40782455 0.10835858 -0.0027481418
0.40785939 0.10766954 -0.0027542862
0.40789422 0.1069805 -0.0027604306
0.40803665 0.10639364 -0.0037622363
0.40807155 0.105703 -0.0037683949
0.40810645 0.10501236 -0.0037745535
0.4082492 0.10441913 -0.0047764461
0.40828419 0.10372691 -0.004782619
0.40831918 0.10303468 -0.0047887918
0.40835419 0.10234246 -0.0047949646
0.40838918 0.10165023 -0.0048011374
0.40842417 0.100958 -0.0048073102
0.40845916 0.10026578 -0.004813483
0.40849414 0.099573553 -0.0048196558
0.40852913 0.098881327 -0.0048258286
0.40856415 0.098189101 -0.0048320014
0.40866506 0.093962207 -0.003873091
0.40869996 0.093271568 -0.0038792496
0.40873489 0.092580937 -0.0038854082
0.40876979 0.091890298 -0.0038915668
0.40869534 0.091132499 -0.0029017518
0.40267587 0.067456119 0.060668599
0.40270555 0.066868924 0.060663361
0.40273523 0.066281721 0.060658127
0.40287715 0.065704405 0.059656408
0.40290692 0.065115616 0.059651155
0.40304911 0.064533524 0.058649361
0.40307894 0.06394314 0.058644097
0.41954091 0.0059555136 -0.061463255
0.419976 0.0040405579 -0.064470083
0.42025328 0.0030164195 -0.066472389
0.420412 0.0021065096 -0.06747707
0.42057094 0.0011934306 -0.068481818
0.43014947 -0.13252677 -0.094588853
0.43019155 -0.13335901 -0.094596274
0.4302336 -0.13419129 -0.094603695
0.43040749 -0.13540038 -0.09561111
0.43044963 -0.13623424 -0.095618546
0.43049181 -0.13706808 -0.095625982
0.430666 -0.13828352 -0.09663339
0.43070823 -0.13911897 -0.09664084
0.43088266 -0.14033918 -0.097648293
0.43092498 -0.14117621 -0.097655758
0.4309673 -0.14201325 -0.097663224
0.43100959 -0.14285028 -0.097670689
0.43105191 -0.14368732 -0.097678155
0.43109423 -0.14452437 -0.09768562
0.43113655 -0.14536139 -0.097693078
0.43117884 -0.14619842 -0.097700544
0.43135402 -0.14743295 -0.098708123
0.43139639 -0.14827159 -0.098715603
0.4314388 -0.14911021 -0.098723084
0.43161428 -0.15035111 -0.099730723
0.43165675 -0.15119134 -0.09973821
0.43169922 -0.15203154 -0.099745706
0.43174171 -0.15287176 -0.099753201
0.43191761 -0.15412064 -0.10076097
0.43196014 -0.15496247 -0.10076848
0.43213627 -0.15621607 -0.10177623
0.43217891 -0.15705948 -0.10178374
0.43235528 -0.15831788 -0.10279154
0.43239799 -0.15916286 -0.10279907
0.4325746 -0.16042604 -0.10380691
0.4326174 -0.16127262 -0.10381446
0.43279424 -0.16254061 -0.1048224
0.43283713 -0.16338877 -0.10482996
0.43301421 -0.1646615 -0.10583788
0.43319148 -0.16593738 -0.10684583
0.43323451 -0.16678876 -0.10685343
0.43327755 -0.16764012 -0.10686102
0.43345511 -0.16892238 -0.10786903
0.43363285 -0.17020784 -0.10887706
0.43381077 -0.1714965 -0.10988519
0.43398881 -0.17278831 -0.11089328
0.43403217 -0.17364603 -0.11090092
0.43421048 -0.17494263 -0.11190906
0.43438894 -0.1762424 -0.11291722
0.43443245 -0.1771033 -0.1129249
0.43461114 -0.17840788 -0.11393317
0.43465474 -0.17927037 -0.11394086
0.43483371 -0.18057969 -0.11494911
0.43487737 -0.18144377 -0.11495681
0.38991505 0.14568457 0.13502596
0.3899388 0.14521512 0.13502178
0.38996252 0.14474569 0.13501759
0.38988915 0.14399749 0.13600782
0.38991281 0.14352965 0.13600364
0.38993645 0.1430618 0.13599947
0.38996011 0.14259395 0.1359953
0.38988635 0.14185373 0.13698557
0.38990989 0.14138748 0.13698141
0.38978514 0.13945667 0.13895796
0.38971072 0.1387292 0.13994835
0.38956141 0.13728376 0.14192922
0.38948652 0.1365658 0.14291972
0.38933626 0.13513948 0.14490074
0.38926086 0.13443108 0.14589132
0.38928372 0.13397914 0.1458873
0.38920811 0.13327552 0.14687788
0.38923085 0.13282517 0.14687388
0.38925362 0.13237482 0.14686985
0.38927639 0.13192448 0.14686584
0.38929915 0.13147414 0.14686182
0.38932192 0.13102379 0.14685781
0.38934469 0.13057345 0.14685379
0.38936746 0.13012311 0.14684978
0.4161163 0.13766026 -0.096322261
0.4160547 0.13667977 -0.095334135
0.41622394 0.13333161 -0.095363989
0.41626626 0.13249458 -0.095371455
0.41641307 0.13178988 -0.096374609
0.40714753 0.10832551 -0.002876936
0.40718237 0.10763647 -0.0028830806
0.4072172 0.10694742 -0.002889225
0.40725204 0.10625838 -0.0028953694
0.40739298 0.10566985 -0.003897487
0.40767404 0.10230923 -0.0049243537
0.40770903 0.101617 -0.0049305265
0.40774402 0.10092478 -0.0049366993
0.40777901 0.10023255 -0.0049428721
0.40784901 0.098848097 -0.0049552172
0.40791899 0.097463645 -0.0049675629
0.40802139 0.093238421 -0.0040083416
0.40805629 0.092547782 -0.0040145004
0.40809122 0.09185715 -0.0040206588
0.40812612 0.091166519 -0.0040268176
0.40805316 0.090410382 -0.0030366906
0.40223911 0.066853724 0.059556853
0.40226889 0.066264935 0.0595516
0.40229866 0.065676145 0.059546351
0.40243918 0.065095566 0.058544274
0.40246904 0.06450519 0.058539011
0.41889018 0.0058036875 -0.062607192
0.41904682 0.0049048481 -0.063612103
0.41920361 0.0040028235 -0.064617015
0.41947776 0.0029785319 -0.066619918
0.41963494 0.0020685459 -0.067624904
0.41979229 0.0011553903 -0.06862995
0.42928967 -0.13173445 -0.094736993
0.42933172 -0.13256672 -0.094744422
0.4293738 -0.13339897 -0.094751842
0.42954606 -0.13460654 -0.095759533
0.4295882 -0.13544041 -0.095766969
0.42963034 -0.13627426 -0.095774405
0.42980289 -0.13748817 -0.096782103
0.42984512 -0.13832362 -0.096789554
0.43001792 -0.13954231 -0.097797289
0.43006024 -0.14037935 -0.097804755
0.43010256 -0.14121638 -0.09781222
0.43014488 -0.14205343 -0.097819678
0.43018717 -0.14289045 -0.097827144
0.43022949 -0.1437275 -0.097834609
0.4302718 -0.14456454 -0.097842075
0.43031412 -0.14540157 -0.09784954
0.43035641 -0.1462386 -0.097856998
0.43039873 -0.14707564 -0.097864464
0.43057242 -0.14831185 -0.098872356
0.4306148 -0.14915048 -0.098879836
0.43065721 -0.14998908 -0.098887317
0.43083119 -0.15123166 -0.099895261
0.43087366 -0.15207188 -0.099902757
0.43091616 -0.1529121 -0.099910252
0.43109047 -0.15416105 -0.10091832
0.43113303 -0.15500286 -0.10092583
0.43117559 -0.15584467 -0.10093333
0.43135023 -0.15709996 -0.10194139
0.43152502 -0.15835844 -0.10294949
0.43169999 -0.15962009 -0.1039576
0.43174279 -0.16046667 -0.10396516
0.431918 -0.16173314 -0.10497338
0.43196088 -0.16258132 -0.10498094
0.43200377 -0.16342948 -0.1049885
0.43217927 -0.16470228 -0.10599672
0.43222225 -0.16555205 -0.1060043
0.43239802 -0.16682963 -0.10701256
0.43244106 -0.16768098 -0.10702015
0.43248409 -0.16853233 -0.10702775
0.43266016 -0.16981627 -0.10803606
0.43301284 -0.17239372 -0.11005285
0.43318942 -0.1736872 -0.11106125
0.43336615 -0.17498387 -0.11206968
0.43354306 -0.17628373 -0.11307814
0.43372011 -0.17758678 -0.11408669
0.43376371 -0.17844929 -0.11409438
0.43380731 -0.17931177 -0.11410207
0.4339847 -0.18062116 -0.11511062
0.43402836 -0.18148525 -0.11511832
0.43407205 -0.18234937 -0.11512603
0.43424976 -0.18366513 -0.11613463
0.43429351 -0.18453078 -0.11614235
0.43447146 -0.18585134 -0.117151
0.43464956 -0.18717505 -0.11815967
0.43469349 -0.18804392 -0.11816742
0.38947755 0.14519259 0.13493404
0.38950127 0.14472315 0.13492985
0.389525 0.1442537 0.13492566
0.38945311 0.14350718 0.1359162
0.3894518 0.1413651 0.13689426
0.38937935 0.14062972 0.13788487
0.38925728 0.13870704 0.13986209
0.38928062 0.13824555 0.13985798
0.38920754 0.13752291 0.14084873
0.38913429 0.13680346 0.14183947
0.38906085 0.13608718 0.14283028
0.38891357 0.13466418 0.14481193
0.38893649 0.13421065 0.14480789
0.38886252 0.13350551 0.14579879
0.38881114 0.13235322 0.14678568
0.38883391 0.13190286 0.14678167
0.38885668 0.13145252 0.14677764
0.38892496 0.13010149 0.1467656
0.41535223 0.13860363 -0.097467408
0.41529232 0.13762002 -0.096479014
0.41533473 0.13678139 -0.096486494
0.41527459 0.13580255 -0.095498055
0.41531688 0.13496551 -0.095505521
0.4153592 0.13412848 -0.095512986
0.41540152 0.13329144 -0.095520452
0.41554669 0.13258825 -0.096523888
0.41558906 0.13174963 -0.096531361
0.40654019 0.10691435 -0.0030180195
0.40657502 0.1062253 -0.0030241639
0.40695891 0.10296822 -0.0050475704
0.4069939 0.102276 -0.0050537433
0.40702888 0.10158377 -0.0050599161
0.40706387 0.10089155 -0.0050660889
0.40709889 0.10019932 -0.0050722617
0.40713388 0.099507093 -0.0050784345
0.40716887 0.098814867 -0.0050846073
0.40720385 0.098122641 -0.0050907801
0.40723884 0.097430415 -0.0050969529
0.40727383 0.096738189 -0.0051031257
0.40730789 0.093895905 -0.0041312752
0.40734282 0.093205266 -0.0041374336
0.40737772 0.092514634 -0.0041435924
0.40741262 0.091823995 -0.0041497508
0.40744755 0.091133364 -0.0041559096
0.40748245 0.090442732 -0.004162068
0.41827598 0.0048671896 -0.063758746
0.41870221 0.0029406445 -0.066767454
0.42847192 -0.1317744 -0.094892561
0.428514 -0.13260667 -0.094899982
0.42868459 -0.13381273 -0.095907964
0.42872673 -0.13464656 -0.095915399
0.4287689 -0.13548043 -0.095922835
0.42881104 -0.13631429 -0.095930271
0.42898205 -0.13752827 -0.09693826
0.42902428 -0.13836372 -0.09694571
0.42919549 -0.13958248 -0.097953744
0.42923781 -0.14041953 -0.09796121
0.42928013 -0.14125656 -0.097968675
0.42932245 -0.1420936 -0.097976141
0.42936474 -0.14293063 -0.097983599
0.42940706 -0.14376768 -0.097991064
0.42944938 -0.14460473 -0.09799853
0.4294917 -0.14544176 -0.098005995
0.42953399 -0.14627878 -0.098013461
0.42957631 -0.14711583 -0.098020926
0.42974842 -0.1483521 -0.099029116
0.42979082 -0.14919072 -0.099036589
0.4298332 -0.15002935 -0.09904407
0.43000564 -0.151272 -0.10005232
0.43004811 -0.15211222 -0.10005981
0.43022081 -0.15335965 -0.10106816
0.43026337 -0.15420146 -0.10107566
0.43030593 -0.15504327 -0.10108317
0.4304789 -0.15629704 -0.10209152
0.43052155 -0.15714045 -0.10209904
0.43069479 -0.158399 -0.10310743
0.43086818 -0.15966073 -0.10411584
0.43104175 -0.16092567 -0.10512435
0.43108463 -0.16177385 -0.10513192
0.43112752 -0.16262203 -0.10513948
0.43117037 -0.16347019 -0.10514704
0.43134436 -0.16474307 -0.10615556
0.43138731 -0.16559283 -0.10616314
0.43143025 -0.1664426 -0.10617071
0.43160456 -0.16772185 -0.10717928
0.4316476 -0.1685732 -0.10718688
0.43182212 -0.16985722 -0.1081955
0.43199679 -0.17114441 -0.10920414
0.43217164 -0.17243482 -0.11021287
0.43234667 -0.17372838 -0.11122157
0.43252185 -0.17502512 -0.1122303
0.43256527 -0.17588444 -0.11223797
0.43287268 -0.17762817 -0.1142479
0.43291628 -0.17849068 -0.1142556
0.43295985 -0.17935318 -0.11426329
0.43300346 -0.18021569 -0.11427098
0.43317938 -0.18152672 -0.11527984
0.43322304 -0.18239084 -0.11528754
0.43339917 -0.18370669 -0.11629644
0.43344295 -0.18457234 -0.11630416
0.43361932 -0.18589297 -0.1173131
0.43379587 -0.18721676 -0.11832207
0.43397257 -0.18854375 -0.11933114
0.43401656 -0.1894142 -0.1193389
0.3890163 0.14517006 0.13484628
0.38904002 0.14470062 0.1348421
0.38896978 0.14395258 0.13583292
0.38899344 0.14348473 0.13582875
0.38901711 0.14301689 0.13582458
0.38897011 0.14180897 0.13681127
0.38899368 0.14134271 0.13680711
0.38892278 0.14060742 0.13779801
0.38894626 0.14014275 0.13779387
0.38887516 0.13941222 0.13878486
0.3888272 0.13822341 0.13977171
0.38875568 0.13750084 0.14076276
0.38868397 0.13678145 0.14175381
0.38870716 0.13632315 0.14174972
0.3885138 0.13373534 0.14471906
0.38848248 0.13007987 0.14668143
0.38850525 0.12962952 0.1466774
0.41417158 0.14345016 -0.096583419
0.4143143 0.1427644 -0.097586997
0.41435677 0.14192419 -0.097594492
0.41449973 0.14123365 -0.098598175
0.41454229 0.14039184 -0.098605677
0.4144842 0.13940352 -0.097616971
0.41452667 0.13856331 -0.097624466
0.41446835 0.13757977 -0.096635766
0.41451073 0.13674113 -0.096643247
0.41455314 0.13590251 -0.096650727
0.41449445 0.13492534 -0.095661975
0.41463792 0.13422525 -0.09666568
0.4146803 0.13338663 -0.096673161
0.41472268 0.132548 -0.096680641
0.41486645 0.13184156 -0.097684406
0.4065944 0.094553389 -0.0042542079
0.40662932 0.09386275 -0.0042603668
0.40673405 0.091790847 -0.0042788424
0.40676898 0.091100216 -0.0042850012
0.40680388 0.090409577 -0.0042911596
0.42765421 -0.13181435 -0.095048122
0.42782316 -0.1330189 -0.096056387
0.4278653 -0.13385275 -0.096063823
0.42790744 -0.13468659 -0.096071258
0.42794961 -0.13552047 -0.096078694
0.42799175 -0.13635431 -0.09608613
0.42816117 -0.13756837 -0.097094424
0.4282034 -0.13840383 -0.097101875
0.42837307 -0.13962267 -0.098110206
0.42841539 -0.14045972 -0.098117664
0.42845771 -0.14129674 -0.09812513
0.42850003 -0.14213379 -0.098132595
0.42854232 -0.14297082 -0.098140061
0.42858464 -0.14380786 -0.098147526
0.42862695 -0.1446449 -0.098154984
0.42866927 -0.14548193 -0.09816245
0.42871156 -0.14631896 -0.098169915
0.42888203 -0.14755373 -0.099178389
0.42892444 -0.14839236 -0.099185869
0.42896682 -0.14923099 -0.099193349
0.42913762 -0.1504721 -0.10020187
0.42918009 -0.15131232 -0.10020937
0.42922258 -0.15215254 -0.10021686
0.42939368 -0.15340006 -0.10122551
0.42943624 -0.15424186 -0.10123301
0.4296076 -0.15549414 -0.10224164
0.42965025 -0.15633753 -0.10224917
0.42982182 -0.15759456 -0.10325783
0.42986456 -0.15843956 -0.10326537
0.4300364 -0.15970136 -0.10427409
0.43020838 -0.16096638 -0.10528289
0.43025127 -0.16181456 -0.10529046
0.43029413 -0.16266274 -0.10529802
0.43033701 -0.16351092 -0.10530558
0.43050942 -0.16478387 -0.1063144
0.43055236 -0.16563363 -0.10632198
0.43059534 -0.1664834 -0.10632955
0.43076804 -0.16776271 -0.10733842
0.43068123 -0.16818294 -0.10634471
0.43085411 -0.16946544 -0.10735361
0.43115717 -0.17118543 -0.10936387
0.43120039 -0.17203997 -0.10937149
0.43137375 -0.17333204 -0.11038053
0.43167752 -0.17506637 -0.11239092
0.4318513 -0.17636637 -0.11339998
0.43189481 -0.17722727 -0.11340766
0.43206882 -0.17853208 -0.11441682
0.43211243 -0.17939457 -0.1144245
0.43215603 -0.18025708 -0.11443219
0.43233037 -0.18156821 -0.11544135
0.43237403 -0.18243232 -0.11544906
0.43254861 -0.18374823 -0.11645825
0.43259236 -0.1846139 -0.11646597
0.43276718 -0.1859346 -0.11747521
0.43294215 -0.18725847 -0.11848448
0.43298608 -0.18812734 -0.11849223
0.43316132 -0.18945599 -0.1195016
0.43333668 -0.19078782 -0.12051094
0.38853133 0.14561696 0.13476272
0.38855505 0.14514752 0.13475853
0.3885788 0.14467809 0.13475434
0.38851011 0.14393012 0.13574547
0.38853377 0.14346227 0.13574129
0.3885574 0.14299443 0.13573712
0.38858107 0.14252657 0.13573295
0.38851199 0.14178659 0.13672411
0.38853556 0.14132033 0.13671996
0.38846624 0.14058511 0.13771117
0.38839674 0.13985308 0.13870242
0.38842016 0.13938999 0.13869829
0.38830382 0.13747877 0.1406768
0.38832706 0.13701887 0.1406727
0.38825685 0.13630116 0.14166406
0.38820958 0.1351299 0.14265141
0.38813895 0.13442016 0.14364283
0.3880682 0.13371357 0.14463429
0.38799727 0.13301018 0.14562581
0.38790029 0.13071544 0.1476009
0.38792297 0.13026668 0.1475969
0.38804001 0.13005826 0.14659725
0.38796836 0.12936917 0.14758889
0.41326281 0.14508717 -0.096725218
0.41340381 0.1444045 -0.097729065
0.41344628 0.14356428 -0.09773656
0.41348875 0.14272407 -0.097744055
0.41363007 0.14203505 -0.098748013
0.41367263 0.14119324 -0.098755524
0.41371518 0.14035143 -0.098763026
0.41365865 0.13936318 -0.097774021
0.41370112 0.13852297 -0.097781517
0.41364434 0.13753951 -0.096792527
0.41368675 0.13670088 -0.096799999
0.41372913 0.13586226 -0.09680748
0.41367203 0.13488515 -0.095818438
0.41381392 0.13418499 -0.096822441
0.41385633 0.13334636 -0.096829914
0.41389871 0.13250774 -0.096837394
0.41404089 0.13180122 -0.097841457
0.40609038 0.091067061 -0.0044140932
0.43567422 0.059849434 -0.26710665
0.43594375 0.058730789 -0.2691122
0.43610677 0.057612114 -0.27011994
0.43626997 0.056490261 -0.2711277
0.43643335 0.05536522 -0.2721355
0.42700386 -0.13305892 -0.096212253
0.427046 -0.13389277 -0.096219689
0.42708814 -0.13472661 -0.096227124
0.42713031 -0.1355605 -0.09623456
0.42717245 -0.13639434 -0.096241996
0.42734033 -0.13760848 -0.097250581
0.42738256 -0.13844393 -0.097258031
0.42755064 -0.13966285 -0.098266661
0.42759296 -0.14049989 -0.098274127
0.42763528 -0.14133692 -0.098281585
0.4276776 -0.14217396 -0.09828905
0.42771989 -0.14301099 -0.098296516
0.42776221 -0.14384803 -0.098303981
0.42780453 -0.14468507 -0.098311447
0.42784685 -0.1455221 -0.098318912
0.42801565 -0.14675534 -0.099327669
0.42805806 -0.14759398 -0.099335141
0.42810044 -0.14843261 -0.099342622
0.42826959 -0.14967223 -0.10035144
0.42831206 -0.15051243 -0.10035893
0.42848146 -0.15175684 -0.10136785
0.42852402 -0.15259865 -0.10137535
0.42856658 -0.15344046 -0.10138286
0.4287363 -0.1546912 -0.10239177
0.42877892 -0.15553461 -0.10239929
0.42882156 -0.15637802 -0.10240681
0.42899159 -0.15763512 -0.10341578
0.42916179 -0.15889542 -0.10442478
0.42920458 -0.15974201 -0.10443233
0.42937502 -0.16100711 -0.10544143
0.42941791 -0.16185528 -0.10544899
0.42946076 -0.16270347 -0.10545655
0.42950365 -0.16355163 -0.10546412
0.42954654 -0.1643998 -0.10547169
0.42971745 -0.16567442 -0.10648081
0.4297604 -0.16652419 -0.10648838
0.42980334 -0.16737396 -0.10649596
0.42984632 -0.16822372 -0.10650354
0.43001762 -0.16950631 -0.10751274
0.4301891 -0.17079206 -0.10852196
0.43036076 -0.17208099 -0.10953122
0.43053257 -0.17337313 -0.11054056
0.43070453 -0.17466845 -0.11154987
0.43100542 -0.17640769 -0.1135609
0.43117779 -0.17771098 -0.11457034
0.4312214 -0.17857349 -0.11457803
0.431265 -0.17943598 -0.11458572
0.4313086 -0.18029848 -0.11459341
0.43148136 -0.18160968 -0.11560287
0.43152502 -0.18247379 -0.11561057
0.43169805 -0.18378979 -0.11662006
0.4317418 -0.18465544 -0.11662778
0.43191504 -0.18597624 -0.11763732
0.43208846 -0.18730018 -0.11864689
0.43213239 -0.18816905 -0.11865464
0.43230605 -0.18949777 -0.1196643
0.43247986 -0.19082968 -0.12067394
0.38804635 0.14606386 0.13467917
0.38807008 0.14559443 0.13467498
0.3880938 0.14512499 0.13467079
0.38811755 0.14465556 0.13466661
0.38805044 0.14390767 0.13565803
0.38807407 0.14343981 0.13565385
0.38809773 0.14297196 0.13564968
0.38812137 0.14250411 0.13564551
0.38805386 0.14176421 0.13663696
0.38807744 0.14129795 0.1366328
0.38800967 0.1405628 0.13762431
0.38794175 0.13983084 0.13861586
0.38796517 0.13936777 0.13861173
0.38785195 0.13745669 0.14059083
0.3878752 0.13699679 0.14058673
0.38780653 0.13627915 0.14157839
0.38776082 0.13510798 0.14256604
0.3876918 0.13439831 0.14355777
0.38762259 0.1336918 0.14454952
0.38752922 0.13138767 0.14652511
0.38755199 0.13093732 0.14652111
0.38748205 0.13024515 0.14751302
0.38759753 0.13003664 0.14651307
0.38752744 0.12934764 0.14750502
0.41235402 0.14672415 -0.096867017
0.41239643 0.14588553 -0.096874498
0.41243881 0.1450469 -0.096881971
0.41257825 0.14436416 -0.097886115
0.41262072 0.14352396 -0.097893611
0.41266319 0.14268373 -0.097901106
0.41280296 0.14199466 -0.098905362
0.41284552 0.14115284 -0.098912872
0.41288805 0.14031103 -0.098920375
0.41283309 0.13932286 -0.097931072
0.41287556 0.13848265 -0.097938567
0.41282037 0.13749926 -0.096949279
0.41286275 0.13666062 -0.09695676
0.41290516 0.135822 -0.096964233
0.41284961 0.13484497 -0.095974892
0.41298994 0.13414474 -0.096979193
0.41303232 0.13330612 -0.096986674
0.41307473 0.13246749 -0.096994147
0.41321537 0.13176088 -0.097998507
0.41335616 0.13105111 -0.09900295
0.43399686 0.063117482 -0.26329207
0.43415752 0.062014643 -0.26429996
0.43431836 0.060908627 -0.26530793
0.43458444 0.059796192 -0.26731399
0.43485084 0.058677398 -0.26932013
0.43501231 0.057558645 -0.27032816
0.43517393 0.056436714 -0.27133623
0.43533573 0.055311598 -0.27234432
0.43549767 0.054183304 -0.27335241
0.42499909 -0.10757256 -0.097138546
0.42504132 -0.108408 -0.097145997
0.42508355 -0.10924345 -0.09715344
0.42512578 -0.1100789 -0.097160891
0.42626885 -0.13476664 -0.096382983
0.42631102 -0.13560052 -0.096390419
0.42635316 -0.13643436 -0.096397854
0.42651945 -0.13764858 -0.097406738
0.42656168 -0.13848403 -0.097414188
0.42660391 -0.13931948 -0.097421639
0.42677054 -0.14054006 -0.098430581
0.42681286 -0.14137711 -0.098438047
0.42685518 -0.14221415 -0.098445512
0.42689747 -0.14305118 -0.09845297
0.42693979 -0.14388822 -0.098460436
0.4269821 -0.14472526 -0.098467901
0.4271493 -0.14595698 -0.099476941
0.42719167 -0.1467956 -0.099484421
0.42723408 -0.14763424 -0.099491902
0.42740157 -0.14887233 -0.10050099
0.42744404 -0.14971255 -0.10050849
0.4276118 -0.15095542 -0.10151768
0.42765436 -0.15179725 -0.10152519
0.42782235 -0.15304489 -0.10253438
0.42786497 -0.15388829 -0.10254189
0.42790762 -0.15473169 -0.10254942
0.42807591 -0.15598571 -0.10355866
0.42811865 -0.15683068 -0.10356619
0.42828718 -0.15808947 -0.10457547
0.42832997 -0.15893605 -0.10458302
0.42849877 -0.16019964 -0.10559241
0.42854166 -0.16104782 -0.10559997
0.42858452 -0.16189599 -0.10560753
0.4286274 -0.16274418 -0.10561509
0.42867029 -0.16359234 -0.10562266
0.42871314 -0.16444051 -0.10563023
0.42875603 -0.16528869 -0.10563779
0.42879891 -0.16613688 -0.10564535
0.42884177 -0.16698503 -0.10565291
0.42901137 -0.16826451 -0.10666238
0.42905435 -0.16911428 -0.10666995
0.42922416 -0.17039853 -0.10767946
0.42986178 -0.17470962 -0.11171019
0.43003234 -0.17600818 -0.11271983
0.43020305 -0.17730993 -0.11372949
0.43037394 -0.17861488 -0.11473925
0.43041754 -0.17947738 -0.11474694
0.43046114 -0.18033989 -0.11475463
0.43063235 -0.18165116 -0.11576438
0.43067604 -0.18251528 -0.11577208
0.4307197 -0.18337935 -0.11577979
0.43089125 -0.184697 -0.11678959
0.430935 -0.18556269 -0.11679731
0.43110678 -0.18688513 -0.11780716
0.43127871 -0.18821076 -0.11881704
0.43145078 -0.18953955 -0.11982701
0.43162304 -0.19087155 -0.12083694
0.43179545 -0.19220673 -0.12184691
0.38760883 0.1455719 0.13458723
0.38763258 0.14510246 0.13458304
0.3875671 0.14435306 0.13557474
0.38759074 0.14388521 0.13557057
0.3876144 0.14341736 0.1355664
0.38763803 0.14294951 0.13556223
0.3876617 0.14248165 0.13555805
0.38759574 0.14174183 0.13654982
0.38761932 0.14127557 0.13654566
0.38755313 0.14054051 0.13753745
0.38757661 0.14007583 0.13753331
0.38751018 0.13934554 0.13852519
0.38749024 0.13769546 0.13950881
0.38742334 0.13697472 0.14050077
0.38735625 0.13625716 0.14149272
0.38737941 0.13579886 0.14148864
0.38740259 0.13534056 0.14148456
0.38733518 0.13462935 0.1424766
0.38726762 0.13392134 0.14346863
0.38719991 0.13321652 0.14446071
0.38708675 0.13136604 0.14644094
0.38710952 0.1309157 0.14643693
0.38704115 0.1302236 0.14742914
0.38706383 0.12977485 0.14742513
0.38708651 0.12932609 0.14742114
0.38722333 0.12866399 0.14641684
0.41171023 0.14516407 -0.098035678
0.4117527 0.14432384 -0.098043174
0.41179517 0.14348362 -0.098050661
0.41193327 0.14279605 -0.099055208
0.41197583 0.14195424 -0.099062711
0.41201839 0.14111243 -0.099070221
0.41206095 0.14027062 -0.099077724
0.41205001 0.13844231 -0.098095618
0.41209248 0.13760209 -0.098103113
0.41203877 0.13662037 -0.097113512
0.41208115 0.13578175 -0.097120993
0.41212356 0.13494311 -0.097128466
0.41216594 0.13410448 -0.097135946
0.41234732 0.13256077 -0.098148063
0.41238981 0.13172056 -0.098155558
0.412808 0.12958144 -0.10116975
0.43269873 0.065265469 -0.26248023
0.43285757 0.064167336 -0.26348838
0.4330166 0.063066013 -0.26449654
0.43307242 0.061961632 -0.2645064
0.43333513 0.06085382 -0.26651305
0.43359816 0.059739646 -0.26851967
0.4337579 0.058624003 -0.26952803
0.4340215 0.057498686 -0.27153477
0.43418163 0.056375086 -0.27254316
0.43434194 0.055248301 -0.27355155
0.43460634 0.054107074 -0.2755585
0.43550563 0.050629158 -0.28257805
0.43593314 0.048305448 -0.2855939
0.40047622 -0.025147317 0.092131861
0.40050325 -0.025682004 0.092127092
0.40053028 -0.026216684 0.092122324
0.40055731 -0.026751379 0.092117555
0.40046754 -0.027020175 0.093113542
0.40049449 -0.02755327 0.093108788
0.40052143 -0.028086372 0.093104035
0.40054837 -0.028619459 0.093099281
0.40057531 -0.029152554 0.093094528
0.40048507 -0.02941181 0.094090566
0.40047503 -0.031257629 0.095072493
0.40052861 -0.032317441 0.095063038
0.40043765 -0.032562383 0.096059211
0.42417821 -0.10761266 -0.097294703
0.42422044 -0.1084481 -0.097302154
0.4242627 -0.10928355 -0.097309604
0.42430493 -0.110119 -0.097317055
0.42434716 -0.11095443 -0.097324505
0.42438939 -0.11178989 -0.097331956
0.42544955 -0.13480668 -0.096538849
0.42549172 -0.13564055 -0.096546285
0.42553386 -0.13647439 -0.096553721
0.42569858 -0.13768868 -0.097562902
0.42574084 -0.13852413 -0.097570352
0.42578307 -0.13935958 -0.097577803
0.4258253 -0.14019503 -0.097585253
0.42599043 -0.14141728 -0.098594502
0.42603275 -0.14225432 -0.098601967
0.42607504 -0.14309135 -0.098609433
0.42611736 -0.14392839 -0.098616898
0.42615968 -0.14476544 -0.098624356
0.42632529 -0.14599723 -0.099633694
0.4263677 -0.14683585 -0.099641174
0.42641008 -0.14767449 -0.099648654
0.42657602 -0.14891267 -0.10065804
0.42661849 -0.14975289 -0.10066554
0.42678469 -0.15099584 -0.10167503
0.42682725 -0.15183766 -0.10168254
0.42699367 -0.15308538 -0.10269202
0.42703629 -0.15392877 -0.10269954
0.42720297 -0.15518127 -0.10370906
0.42724568 -0.15602627 -0.1037166
0.42741257 -0.15728353 -0.10472617
0.42745537 -0.15813011 -0.10473371
0.42749816 -0.1589767 -0.10474126
0.42766541 -0.16024035 -0.10575095
0.42770827 -0.16108853 -0.10575851
0.42787576 -0.16235693 -0.10676817
0.42779404 -0.16278489 -0.10577364
0.42783689 -0.16363305 -0.1057812
0.42787978 -0.16448122 -0.10578876
0.42792267 -0.1653294 -0.10579632
0.42796555 -0.16617759 -0.10580389
0.42800841 -0.16702576 -0.10581145
0.42805129 -0.16787393 -0.10581902
0.42821941 -0.16915508 -0.10682879
0.42838767 -0.17043939 -0.1078386
0.42918801 -0.17604944 -0.11288045
0.42935717 -0.17735125 -0.11389041
0.42952651 -0.17865629 -0.11490046
0.42957011 -0.17951877 -0.11490815
0.42961371 -0.18038128 -0.11491585
0.42965731 -0.18124376 -0.11492354
0.42982703 -0.18255675 -0.1159336
0.42987069 -0.18342084 -0.1159413
0.43004066 -0.18473856 -0.11695141
0.43008444 -0.18560424 -0.11695912
0.43025464 -0.18692675 -0.11796927
0.43042499 -0.18825246 -0.11897945
0.43059552 -0.18958133 -0.11998971
0.43089291 -0.19137502 -0.12200241
0.43106383 -0.19271185 -0.12301268
0.38717133 0.14507993 0.1344953
0.3871074 0.14433061 0.13548729
0.38713107 0.14386275 0.13548312
0.3871547 0.1433949 0.13547894
0.38717836 0.14292705 0.13547479
0.38711405 0.1421857 0.13646682
0.38713762 0.14171945 0.13646266
0.3871612 0.14125319 0.1364585
0.38718477 0.14078693 0.13645434
0.38712007 0.14005353 0.13744645
0.38714355 0.13958886 0.13744231
0.3870368 0.13767332 0.13942257
0.38697144 0.13695264 0.14041482
0.38699469 0.13649274 0.14041071
0.38701797 0.13603286 0.14040661
0.38695228 0.13531855 0.14139889
0.38697544 0.13486025 0.14139481
0.38662148 0.13179478 0.14636078
0.38664424 0.13134444 0.14635676
0.4109785 0.14528108 -0.099190034
0.41102105 0.14443927 -0.099197544
0.41106361 0.14359745 -0.099205047
0.41120023 0.14290822 -0.10020985
0.41114873 0.14191383 -0.099220067
0.41130939 0.13672154 -0.09826766
0.41135189 0.13588132 -0.098275147
0.41139436 0.1350411 -0.098282643
0.41175449 0.13194399 -0.10030762
0.41207311 0.12966798 -0.10232522
0.4121159 0.1288214 -0.10233276
0.41225421 0.12809874 -0.10333791
0.43171829 0.065217182 -0.26368466
0.43187568 0.064117379 -0.26469314
0.4319315 0.063013002 -0.26470298
0.43208912 0.06190842 -0.26571155
0.43234879 0.060798865 -0.26771873
0.4325068 0.059686325 -0.2687273
0.43276703 0.058565632 -0.27073464
0.43302757 0.057438571 -0.272742
0.43308404 0.056321464 -0.27275196
0.43334505 0.055184852 -0.27475947
0.43360639 0.054041881 -0.27676696
0.43459755 0.050542541 -0.28478748
0.43496302 0.049353216 -0.28779402
0.43512347 0.048192941 -0.2888031
0.39995086 -0.025172982 0.092031918
0.39997789 -0.02570767 0.09202715
0.40000492 -0.026242349 0.092022382
0.3999168 -0.026512677 0.093018651
0.39994374 -0.027045764 0.093013898
0.39997068 -0.027578859 0.093009144
0.39999765 -0.028111961 0.093004391
0.40002459 -0.028645048 0.092999637
0.40005153 -0.029178144 0.092994884
0.39996284 -0.029437324 0.09399122
0.39998972 -0.029968834 0.093986481
0.39992759 -0.030753147 0.094978169
0.39995438 -0.031283066 0.094973445
0.39998117 -0.031812977 0.094968714
0.40000793 -0.032342877 0.09496399
0.40003473 -0.032872789 0.094959266
0.42323068 -0.10514642 -0.097428516
0.42327291 -0.10598188 -0.097435966
0.42331514 -0.10681731 -0.097443417
0.42335737 -0.10765276 -0.097450867
0.4233996 -0.1084882 -0.09745831
0.42344183 -0.10932365 -0.097465761
0.42336568 -0.10983109 -0.096471637
0.42352629 -0.11099454 -0.097480662
0.42344999 -0.1114988 -0.096486509
0.42349216 -0.11233266 -0.096493945
0.42382938 -0.11900348 -0.09655343
0.42463025 -0.1348467 -0.096694708
0.42467239 -0.13568057 -0.096702144
0.42471457 -0.13651441 -0.096709579
0.42475671 -0.13734826 -0.096717015
0.42491996 -0.13856424 -0.097726509
0.42496219 -0.13939969 -0.09773396
0.42500442 -0.14023513 -0.09774141
0.42516801 -0.14145745 -0.098750964
0.4252103 -0.1422945 -0.098758422
0.42525262 -0.14313152 -0.098765887
0.42529494 -0.14396857 -0.098773353
0.42533726 -0.14480561 -0.098780818
0.42550132 -0.14603749 -0.099790454
0.4255437 -0.14687611 -0.099797927
0.42558607 -0.14771475 -0.099805407
0.42575046 -0.14895301 -0.1008151
0.42579293 -0.14979321 -0.10082259
0.42595756 -0.15103625 -0.10183239
0.42600012 -0.15187806 -0.10183989
0.42616498 -0.15312587 -0.10284967
0.4262076 -0.15396926 -0.10285719
0.42637271 -0.15522183 -0.10386701
0.42641541 -0.15606683 -0.10387455
0.42658076 -0.15732417 -0.10488441
0.42674628 -0.15858471 -0.10589436
0.42678916 -0.15943289 -0.10590192
0.42683202 -0.16028106 -0.10590948
0.42699787 -0.16154796 -0.10691943
0.42704082 -0.16239773 -0.10692701
0.42708376 -0.16324751 -0.10693458
0.42712674 -0.16409725 -0.10694216
0.42716968 -0.16494702 -0.10694974
0.42708927 -0.16537012 -0.10595486
0.4272556 -0.16664656 -0.1069649
0.42717505 -0.16706647 -0.10597
0.4272179 -0.16791464 -0.10597756
0.42738447 -0.16919586 -0.10698763
0.42742741 -0.17004563 -0.10699521
0.42759421 -0.17133161 -0.10800532
0.42851129 -0.17739257 -0.11405133
0.42867905 -0.17869769 -0.11506168
0.42872265 -0.17956018 -0.11506937
0.42876625 -0.18042269 -0.11507706
0.42880985 -0.18128516 -0.11508475
0.42897803 -0.18259823 -0.11609511
0.42902169 -0.18346231 -0.11610281
0.4291901 -0.18478011 -0.11711322
0.42923385 -0.1856458 -0.11712094
0.4294025 -0.18696839 -0.11813138
0.4295713 -0.18829416 -0.11914185
0.42974025 -0.18962312 -0.12015241
0.43003452 -0.19141695 -0.12216571
0.43020388 -0.19275387 -0.12317628
0.38664773 0.14430815 0.13539985
0.38667136 0.1438403 0.13539568
0.38669503 0.14337245 0.1353915
0.38671869 0.14290459 0.13538733
0.38674232 0.14243674 0.13538316
0.3866795 0.14169706 0.1363755
0.38670307 0.14123081 0.13637134
0.38672665 0.14076455 0.13636719
0.3866635 0.14003123 0.1373596
0.38668698 0.13956657 0.13735546
0.41028628 0.14455453 -0.10035245
0.41032892 0.14371113 -0.10035998
0.41046408 0.14302021 -0.10136508
0.41041419 0.14202432 -0.10037501
0.43062308 0.067377508 -0.26487002
0.4306789 0.066273123 -0.26487985
0.43083474 0.065173246 -0.26588866
0.43089065 0.064067274 -0.26589853
0.43104669 0.062962614 -0.26690733
0.43130314 0.0618545 -0.26891512
0.43135929 0.060743753 -0.26892501
0.43161622 0.059626088 -0.27093294
0.43177301 0.058507111 -0.27194187
0.43192995 0.057384949 -0.2729508
0.43218768 0.056251373 -0.27495888
0.43244573 0.055111427 -0.27696693
0.43280491 0.053953703 -0.27997416
0.43306369 0.052799437 -0.28198233
0.43342376 0.051624205 -0.28498971
0.43368328 0.050455619 -0.28699803
0.43404421 0.049262881 -0.29000556
0.43420324 0.04809935 -0.29101488
0.43436241 0.04693263 -0.29202425
0.39939848 -0.024663968 0.091936745
0.39942551 -0.025198648 0.091931976
0.39945254 -0.025733335 0.091927208
0.39936605 -0.026005164 0.09292376
0.39939299 -0.026538266 0.092919007
0.39941996 -0.027071353 0.092914253
0.3994469 -0.027604448 0.0929095
0.39947385 -0.02813755 0.092904747
0.39950079 -0.028670639 0.092899993
0.39952776 -0.029203733 0.09289524
0.39944062 -0.029462837 0.093891874
0.3994675 -0.029994346 0.093887135
0.39949438 -0.030525848 0.093882397
0.39952123 -0.031057345 0.093877658
0.3994337 -0.031308502 0.094874389
0.39946049 -0.031838413 0.094869666
0.39948729 -0.032368314 0.094864942
0.39951408 -0.032898225 0.094860218
0.39954087 -0.033428144 0.094855487
0.42232534 -0.10351564 -0.097569771
0.42236757 -0.10435107 -0.097577222
0.4224098 -0.10518653 -0.097584672
0.42245203 -0.10602198 -0.097592123
0.42249426 -0.10685742 -0.097599573
0.42253649 -0.10769287 -0.097607024
0.42257872 -0.1085283 -0.097614475
0.42262095 -0.10936376 -0.097621925
0.42254639 -0.10987112 -0.096627504
0.42258856 -0.11070497 -0.096634939
0.4226307 -0.11153882 -0.096642375
0.42267287 -0.11237268 -0.096649811
0.42271501 -0.11320653 -0.096657246
0.42279932 -0.11487424 -0.096672118
0.42284146 -0.11570809 -0.096679553
0.4228836 -0.11654194 -0.096686989
0.42368451 -0.13238518 -0.096828267
0.42372665 -0.13321902 -0.096835703
0.42376882 -0.13405287 -0.096843138
0.42381096 -0.13488673 -0.096850574
0.4238531 -0.1357206 -0.09685801
0.42389527 -0.13655443 -0.096865445
0.42393741 -0.13738829 -0.096872881
0.42397958 -0.13822216 -0.096880317
0.42414132 -0.13943979 -0.097890124
0.42418358 -0.14027523 -0.097897567
0.42422581 -0.14111066 -0.097905017
0.42426804 -0.14194614 -0.097912468
0.42443019 -0.14317171 -0.098922342
0.42447251 -0.14400876 -0.098929808
0.42463493 -0.14523913 -0.099939726
0.42467731 -0.14607774 -0.099947207
0.42471972 -0.14691636 -0.099954687
0.4247621 -0.147755 -0.09996216
0.42492491 -0.14899333 -0.10097215
0.42496738 -0.14983355 -0.10097964
0.42513046 -0.15107666 -0.10198974
0.42517301 -0.15191847 -0.10199724
0.4253363 -0.15316634 -0.10300732
0.42549977 -0.1544174 -0.10401742
0.42554247 -0.1552624 -0.10402495
0.42570618 -0.15651822 -0.1050351
0.42574897 -0.1573648 -0.10504265
0.42591292 -0.15862542 -0.1060529
0.42607701 -0.15988922 -0.10706311
0.42611995 -0.16073897 -0.10707069
0.42616293 -0.16158874 -0.10707827
0.42620587 -0.16243851 -0.10708585
0.42624885 -0.1632883 -0.10709342
0.42629179 -0.16413805 -0.107101
0.42633474 -0.16498782 -0.10710858
0.42766541 -0.17743389 -0.11421225
0.42770892 -0.17829481 -0.11421993
0.42775247 -0.17915571 -0.11422761
0.42791882 -0.18046409 -0.11523828
0.42796242 -0.18132657 -0.11524597
0.42800602 -0.18218908 -0.11525366
0.42817268 -0.18350379 -0.11626433
0.42821637 -0.18436788 -0.11627204
0.42917612 -0.1914589 -0.12232901
0.38623536 0.14334999 0.13530405
0.38625899 0.14288214 0.13529988
0.38628265 0.14241429 0.1352957
0.38622138 0.14167468 0.13628836
0.40959111 0.14382465 -0.10151549
0.40963382 0.14297965 -0.10152303
0.40967652 0.14213467 -0.10153056
0.41037309 0.13225819 -0.10361718
0.42973453 0.067339696 -0.26707485
0.42988884 0.06623815 -0.26808393
0.4299449 0.065128997 -0.26809379
0.43009949 0.064022668 -0.2691029
0.43015563 0.062911928 -0.26911283
0.43031046 0.061800826 -0.27012202
0.43046543 0.060686547 -0.27113122
0.43071941 0.059565544 -0.27313969
0.43087476 0.058443308 -0.27414894
0.43112931 0.05731117 -0.27615759
0.43128508 0.056180973 -0.2771669
0.43154019 0.055037696 -0.27917558
0.43189481 0.05387656 -0.28218374
0.43224996 0.052705873 -0.28519195
0.43260556 0.051525638 -0.28820023
0.43333483 0.046856515 -0.29323819
0.43349269 0.045684949 -0.2942479
0.39893061 -0.02387522 0.090844817
0.39884609 -0.024154939 0.091841571
0.39887312 -0.024689633 0.091836803
0.39890015 -0.025224313 0.091832034
0.39892718 -0.025759 0.091827266
0.39895421 -0.02629368 0.091822498
0.39886922 -0.026563855 0.092819363
0.39889616 -0.027096942 0.092814609
0.3989231 -0.027630037 0.092809856
0.39895007 -0.028163139 0.092805102
0.39897701 -0.028696228 0.092800349
0.39900395 -0.029229322 0.092795596
0.39891842 -0.029488349 0.093792528
0.39894527 -0.030019859 0.093787789
0.39897215 -0.030551363 0.093783043
0.39899901 -0.031082857 0.093778305
0.39902589 -0.031614367 0.093773566
0.39905274 -0.032145869 0.093768828
0.39896664 -0.03239375 0.094765894
0.3989934 -0.032923661 0.094761163
0.3990202 -0.03345358 0.094756439
0.39904699 -0.033983491 0.094751716
0.4215467 -0.10439118 -0.097733386
0.42158896 -0.10522663 -0.097740836
0.42163119 -0.10606208 -0.09774828
0.42167342 -0.10689752 -0.09775573
0.42171565 -0.10773297 -0.097763181
0.42164281 -0.10824343 -0.096768491
0.42168495 -0.10907729 -0.096775927
0.42172709 -0.10991114 -0.096783362
0.42176926 -0.11074499 -0.096790798
0.4218114 -0.11157885 -0.096798234
0.42185354 -0.11241271 -0.096805669
0.42189571 -0.11324655 -0.096813105
0.42193785 -0.11408041 -0.096820541
0.4218643 -0.11457654 -0.095825665
0.42202216 -0.11574811 -0.096835412
0.4220643 -0.11658197 -0.096842848
0.42222244 -0.11775833 -0.09785258
0.42207465 -0.11873784 -0.095862769
0.42200053 -0.11922284 -0.094867848
0.42192623 -0.11970468 -0.093872905
0.42196813 -0.12053375 -0.093880296
0.42201003 -0.12136283 -0.093887694
0.42193544 -0.1218383 -0.092892684
0.42237842 -0.1266989 -0.094934516
0.42253742 -0.12789273 -0.095944405
0.4225795 -0.12872499 -0.095951825
0.42274779 -0.13205405 -0.095981516
0.42290735 -0.13325904 -0.096991561
0.42294949 -0.13409291 -0.096998997
0.42299166 -0.13492675 -0.097006433
0.4230338 -0.13576062 -0.097013868
0.42307597 -0.13659447 -0.097021304
0.42311811 -0.13742831 -0.09702874
0.42316025 -0.13826218 -0.097036175
0.42320243 -0.13909604 -0.097043611
0.4233627 -0.14031532 -0.098053731
0.42340493 -0.14115077 -0.098061182
0.42344716 -0.14198624 -0.098068632
0.42360777 -0.14321189 -0.099078804
0.42365009 -0.14404893 -0.09908627
0.42381093 -0.14527938 -0.10009648
0.42385334 -0.146118 -0.10010396
0.42389572 -0.14695662 -0.10011144
0.42405689 -0.14819343 -0.10112171
0.42409936 -0.14903367 -0.1011292
0.42414182 -0.14987388 -0.1011367
0.42418432 -0.15071408 -0.10114419
0.42434588 -0.15195888 -0.10215459
0.42450762 -0.15320683 -0.10316496
0.4246695 -0.15445796 -0.10417537
0.42471224 -0.15530296 -0.1041829
0.42487437 -0.15655886 -0.10519334
0.42503667 -0.15781797 -0.10620387
0.42507955 -0.15866615 -0.10621144
0.42524207 -0.15993002 -0.10722195
0.42540479 -0.16119705 -0.10823249
0.42544782 -0.1620484 -0.10824008
0.42549086 -0.16289976 -0.10824768
0.42553389 -0.16375113 -0.10825527
0.42686304 -0.17833613 -0.11438084
0.42690659 -0.17919703 -0.11438853
0.4269501 -0.18005794 -0.1143962
0.42711496 -0.18136796 -0.11540718
0.42715856 -0.18223047 -0.11541488
0.42720217 -0.18309298 -0.11542257
0.42736736 -0.18440935 -0.11643355
0.40880737 0.14478458 -0.10266405
0.40885016 0.143938 -0.1026716
0.40889296 0.14309143 -0.10267915
0.40893576 0.14224485 -0.1026867
0.40972057 0.13248077 -0.10577245
0.4455547 0.15338635 -0.4854162
0.44647735 0.14665724 -0.49147359
0.44664395 0.14528191 -0.49248537
0.44662553 0.14372604 -0.49149972
0.44669962 0.14226042 -0.49151278
0.42893639 0.067309111 -0.27028036
0.42899263 0.066196777 -0.27029026
0.42904887 0.065084442 -0.27030018
0.42920202 0.063974857 -0.27130961
0.42935535 0.062862091 -0.27231908
0.42941174 0.061746571 -0.27232903
0.42956531 0.060629033 -0.27333853
0.42971906 0.059508309 -0.27434808
0.42997029 0.058379199 -0.27635729
0.43022186 0.057243723 -0.27836648
0.43047374 0.056101885 -0.28037581
0.43082353 0.054943699 -0.28338477
0.43107614 0.053787537 -0.28539422
0.43142682 0.05261185 -0.2884033
0.43168014 0.051441364 -0.2904129
0.43203172 0.050248172 -0.29342222
0.43218777 0.049081299 -0.29443216
0.43234399 0.047911245 -0.29544213
0.43240225 0.046759129 -0.29545242
0.43246049 0.045607012 -0.29546267
0.41813314 0.02751757 -0.13869414
0.41817877 0.026615294 -0.13870218
0.41821513 0.023975715 -0.13772619
0.41816008 0.023143888 -0.13673401
0.41747865 0.019339716 -0.127772
0.41742232 0.018533349 -0.1267796
0.41736585 0.017730162 -0.12578721
0.41741043 0.016848566 -0.12579508
0.41745499 0.01596697 -0.12580293
0.39834777 -0.024715299 0.091736861
0.39840183 -0.025784668 0.091727324
0.39842886 -0.026319347 0.091722555
0.39834544 -0.026589444 0.092719719
0.39837238 -0.027122531 0.092714965
0.39839932 -0.027655626 0.092710212
0.39842626 -0.02818873 0.092705458
0.39845324 -0.028721817 0.092700705
0.39848018 -0.029254911 0.092695944
0.39839619 -0.029513862 0.093693182
0.39842305 -0.030045372 0.093688436
0.39844993 -0.030576875 0.093683697
0.39847678 -0.03110837 0.093678959
0.39850366 -0.031639881 0.09367422
0.39853051 -0.032171384 0.093669482
0.39855739 -0.032702878 0.093664743
0.39858425 -0.03323438 0.093660004
0.39861113 -0.03376589 0.093655266
0.39863798 -0.034297392 0.09365052
0.39866486 -0.03482889 0.093645781
0.42061275 -0.10411419 -0.096887171
0.42065489 -0.10494804 -0.096894607
0.42069703 -0.10578191 -0.09690205
0.4207392 -0.10661575 -0.096909486
0.42089477 -0.10777307 -0.097919345
0.42082351 -0.10828345 -0.096924357
0.42086565 -0.10911731 -0.096931793
0.42079413 -0.1096229 -0.095936701
0.42083618 -0.11045517 -0.095944121
0.42087826 -0.11128744 -0.095951542
0.42092034 -0.1121197 -0.095958963
0.42107642 -0.11328658 -0.096968971
0.42111856 -0.11412044 -0.096976407
0.42116073 -0.11495429 -0.096983843
0.42120287 -0.11578814 -0.096991278
0.42124501 -0.116622 -0.096998714
0.42128718 -0.11745586 -0.09700615
0.42132932 -0.1182897 -0.097013585
0.4212569 -0.11877779 -0.096018337
0.42118433 -0.11926271 -0.095023118
0.42111161 -0.11974448 -0.094027877
0.42103872 -0.12022303 -0.093032598
0.42108056 -0.12105051 -0.093039982
0.4211224 -0.12187802 -0.093047358
0.42116421 -0.1227055 -0.093054742
0.42120606 -0.12353299 -0.093062118
0.42124787 -0.12436048 -0.093069494
0.42140499 -0.12554803 -0.094079629
0.42156225 -0.12673877 -0.095089786
0.4217197 -0.12793268 -0.096099973
0.42176178 -0.12876494 -0.096107394
0.42180383 -0.12959722 -0.096114814
0.42193004 -0.132094 -0.096137077
0.42208806 -0.13329907 -0.097147427
0.42201421 -0.13375852 -0.096151926
0.42217237 -0.13496678 -0.097162299
0.42209834 -0.13542305 -0.096166767
0.42225668 -0.1366345 -0.09717717
0.42218247 -0.13708757 -0.096181609
0.42234096 -0.13830221 -0.097192042
0.42238313 -0.13913606 -0.097199477
0.42254183 -0.14035544 -0.098209888
0.42258409 -0.14119087 -0.098217338
0.42262632 -0.14202634 -0.098224789
0.42278534 -0.14325206 -0.099235259
0.42282766 -0.1440891 -0.099242724
0.42298695 -0.14531963 -0.10025324
0.42302933 -0.14615825 -0.10026071
0.42307174 -0.14699687 -0.10026819
0.42323133 -0.14823377 -0.10127877
0.4232738 -0.149074 -0.10128625
0.4233163 -0.14991421 -0.10129375
0.42335877 -0.15075442 -0.10130124
0.42351878 -0.15199929 -0.10231194
0.42367893 -0.15324731 -0.10332261
0.42372158 -0.15409072 -0.10333013
0.42388198 -0.15534352 -0.10434084
0.42404255 -0.15659949 -0.10535158
0.42408535 -0.15744609 -0.10535913
0.42424616 -0.15870686 -0.10636997
0.42440715 -0.15997081 -0.10738079
0.42456827 -0.16123793 -0.10839163
0.4246113 -0.16208927 -0.10839922
0.42613673 -0.17882189 -0.11554532
0.42618033 -0.17968439 -0.11555302
0.42622393 -0.18054689 -0.11556071
0.42626753 -0.18140937 -0.1155684
0.42631114 -0.18227187 -0.1155761
0.42647469 -0.18358675 -0.11658736
0.42651835 -0.18445083 -0.11659507
0.40814897 0.14320305 -0.10383593
0.40819186 0.14235489 -0.1038435
0.40823472 0.1415067 -0.10385106
0.40823233 0.13966446 -0.10286759
0.40857774 0.13472129 -0.10391156
0.40870932 0.13400787 -0.10491776
0.40884104 0.13329127 -0.105924
0.40897295 0.13257149 -0.10693025
0.44414085 0.15487386 -0.4866744
0.44421452 0.15341622 -0.48668739
0.4444693 0.15215486 -0.4886983
0.44463378 0.1507906 -0.4897103
0.44505402 0.14814588 -0.49273345
0.4451282 0.14667869 -0.49274653
0.44520235 0.14521149 -0.49275962
0.44527653 0.14374427 -0.4927727
0.44535071 0.14227708 -0.49278578
0.4281289 0.067278065 -0.27348757
0.42818534 0.066160955 -0.27349755
0.42824182 0.065043852 -0.27350751
0.42829829 0.063926741 -0.27351746
0.42835477 0.062809631 -0.27352741
0.42860234 0.061691504 -0.27553713
0.42875457 0.060569115 -0.27654698
0.42890698 0.059443541 -0.27755684
0.42915535 0.058309507 -0.27956665
0.42949986 0.057162233 -0.28257644
0.42974895 0.056013871 -0.2845864
0.43009439 0.054849096 -0.28759632
0.43034419 0.053686414 -0.28960642
0.4305943 0.052517369 -0.2916165
0.43084475 0.051341958 -0.29362673
0.43109551 0.050160181 -0.29563692
0.43125018 0.048990052 -0.29664722
0.43130851 0.047836341 -0.2966575
0.43136683 0.046682633 -0.29666778
0.43142515 0.045528922 -0.29667807
0.41682217 0.032091711 -0.13682188
0.41715539 0.02927882 -0.13884671
0.41729951 0.028317157 -0.13985512
0.41724661 0.02747426 -0.13886279
0.41729224 0.026571982 -0.13887084
0.41733783 0.025669701 -0.13887888
0.41728461 0.024833169 -0.13788651
0.41733015 0.023932481 -0.13789454
0.41727668 0.023100728 -0.13690206
0.41722304 0.022272151 -0.13590962
0.41660932 0.019297246 -0.12793739
0.41655457 0.018490955 -0.12694468
0.41659921 0.017607771 -0.12695256
0.4165442 0.016806249 -0.12595986
0.41658878 0.015924653 -0.12596773
0.41663334 0.015043058 -0.12597559
0.41662252 0.013367901 -0.12499069
0.39787647 -0.025810333 0.091627382
0.3979035 -0.026345013 0.091622613
0.39782164 -0.026615033 0.092620075
0.39784858 -0.02714812 0.092615321
0.39787555 -0.027681217 0.092610568
0.39790249 -0.028214319 0.092605807
0.39792943 -0.028747406 0.092601053
0.39795637 -0.0292805 0.0925963
0.39787397 -0.029539375 0.093593828
0.39790082 -0.030070886 0.09358909
0.39798144 -0.031665392 0.093574874
0.39806202 -0.033259895 0.093560651
0.3980889 -0.033791404 0.093555912
0.4198356 -0.10498806 -0.097050473
0.41987774 -0.10582193 -0.097057909
0.41991991 -0.10665578 -0.097065344
0.41996205 -0.10748962 -0.09707278
0.42000419 -0.10832348 -0.097080216
0.41993433 -0.1088306 -0.096084841
0.42006055 -0.11132739 -0.096107103
0.4201026 -0.11215965 -0.096114524
0.42014468 -0.11299191 -0.096121952
0.42029926 -0.11416046 -0.097132266
0.42022881 -0.11465644 -0.096136793
0.42038357 -0.11582816 -0.097147137
0.42042571 -0.11666203 -0.097154573
0.42046788 -0.11749589 -0.097162008
0.42051002 -0.11832973 -0.097169444
0.42043918 -0.11881774 -0.096173897
0.42025509 -0.11895518 -0.094175451
0.42018387 -0.11943527 -0.093179896
0.42022568 -0.12026275 -0.093187273
0.42026752 -0.12109024 -0.093194656
0.42019594 -0.12156396 -0.092199042
0.42023769 -0.12238985 -0.092206404
0.42027944 -0.12321574 -0.092213772
