# .PCD v0.7 - Point Cloud Data file format
VERSION 0.7
FIELDS x y z
SIZE 4 4 4
TYPE F F F
COUNT 1 1 1
WIDTH 1400
HEIGHT 1
VIEWPOINT 0 0 0 1 0 0 0
POINTS 1400
DATA ascii
0.39097896 0.15193979 0.045764849
0.39108723 0.15156342 0.044760469
0.39111811 0.15095235 0.044755019
0.39114901 0.15034129 0.044749569
0.39117989 0.14973022 0.044744123
0.39121079 0.14911915 0.044738673
0.39124167 0.14850809 0.044733223
0.39135051 0.14812058 0.043728713
0.39138147 0.14750792 0.043723252
0.39141247 0.14689526 0.043717787
0.39144343 0.1462826 0.043712325
0.39155266 0.14588714 0.042707775
0.39158371 0.1452729 0.042702299
0.39161476 0.14465863 0.042696819
0.39164582 0.14404438 0.042691343
0.39175546 0.14364097 0.041686691
0.39178658 0.14302513 0.0416812
0.39189646 0.14261694 0.040676534
0.39192766 0.1419995 0.040671028
0.39203781 0.14158654 0.039666291
0.3920691 0.1409675 0.039660774
0.39210039 0.14034849 0.039655253
0.39221081 0.13992916 0.03865049
0.39224219 0.13930854 0.038644955
0.39227358 0.13868792 0.038639423
0.39230493 0.13806731 0.038633887
0.39233631 0.13744669 0.038628351
0.39236769 0.13682607 0.038622819
0.39239904 0.13620545 0.038617283
0.39243042 0.13558485 0.038611751
0.39246181 0.13496423 0.038606215
0.39249319 0.13434361 0.038600679
0.39252454 0.13372299 0.038595147
0.39255592 0.13310237 0.038589612
0.3925873 0.13248175 0.03858408
0.39253846 0.13168214 0.039577972
0.39256975 0.13106312 0.039572451
0.39260104 0.13044409 0.039566934
0.39263234 0.12982506 0.039561413
0.39258313 0.12903339 0.040555406
0.39261433 0.12841596 0.0405499
0.39264554 0.12779853 0.040544394
0.39267674 0.12718108 0.040538888
0.39270797 0.12656365 0.040533382
0.39273918 0.12594622 0.040527876
0.39277038 0.12532879 0.04052237
0.39280161 0.12471136 0.040516865
0.39283282 0.12409392 0.040511359
0.39286402 0.12347648 0.040505853
0.39297655 0.12301578 0.039500691
0.39300784 0.12239675 0.03949517
0.39303914 0.12177774 0.039489653
0.39307043 0.1211587 0.039484132
0.39310172 0.12053969 0.039478611
0.39313301 0.11992066 0.03947309
0.39324611 0.11944881 0.038467862
0.3932775 0.11882819 0.038462326
0.39330885 0.11820757 0.03845679
0.39342228 0.11772937 0.037451472
0.39345375 0.11710716 0.037445925
0.39348519 0.11648495 0.037440374
0.39359891 0.11600038 0.03643503
0.39363045 0.11537658 0.036429469
0.39374444 0.11488723 0.03542408
0.39377606 0.11426184 0.035418503
0.39389029 0.11376771 0.034413043
0.36134249 0.06204829 0.42836043
0.36134249 0.06204829 0.42836043
0.36134249 0.06204829 0.42836043
0.36134249 0.06204829 0.42836043
0.36134249 0.06204829 0.42836043
0.36134249 0.06204829 0.42836043
0.36134249 0.06204829 0.42836043
0.36134249 0.06204829 0.42836043
0.3975063 0.10402584 -0.00071011687
0.39745641 0.1032469 0.00028396127
0.3974064 0.10247115 0.001278097
0.39735621 0.10169858 0.002272232
0.39739046 0.10102067 0.002266187
0.39734003 0.10025287 0.0032603943
0.39728945 0.099488266 0.0042546005
0.39732355 0.098813541 0.0042485837
0.39735767 0.098138817 0.0042425669
0.39730674 0.097380571 0.005236859
0.39734077 0.096707441 0.0052308561
0.39737481 0.096034311 0.0052248538
0.39740881 0.095361181 0.0052188514
0.39744285 0.09468805 0.005212849
0.39747688 0.09401492 0.0052068462
0.39751092 0.09334179 0.0052008438
0.39754492 0.09266866 0.0051948414
0.39757895 0.09199553 0.0051888386
0.39761299 0.0913224 0.0051828362
0.39764702 0.09064927 0.0051768338
0.39768103 0.089976139 0.0051708315
0.39771506 0.089303009 0.0051648286
0.3977491 0.088629879 0.0051588262
0.39769697 0.087895498 0.0061533018
0.39773092 0.087223962 0.0061473134
0.39776486 0.086552419 0.006141325
0.39779881 0.085880883 0.0061353371
0.39783275 0.08520934 0.0061293487
0.3978667 0.084537804 0.0061233602
0.39790067 0.083866261 0.0061173718
0.39793462 0.083194725 0.0061113834
0.39796856 0.082523189 0.0061053955
0.39800251 0.081851646 0.0060994071
0.39803645 0.081180111 0.0060934187
0.39807039 0.080508567 0.0060874303
0.39810434 0.079837032 0.0060814419
0.39813828 0.079165488 0.0060754539
0.39817223 0.078493953 0.0060694655
0.39820617 0.077822417 0.0060634771
0.39824012 0.077150874 0.0060574887
0.39827406 0.076479338 0.0060515003
0.39830801 0.075807795 0.0060455124
0.39834195 0.075136259 0.006039524
0.3983759 0.074464723 0.0060335356
0.39840987 0.07379318 0.0060275472
0.39844382 0.073121645 0.0060215588
0.39847776 0.072450101 0.0060155708
0.39851171 0.071778566 0.0060095824
0.39854565 0.07110703 0.006003594
0.3985796 0.070435487 0.0059976056
0.39861354 0.069763951 0.0059916172
0.39864749 0.069092408 0.0059856293
0.39868143 0.068420872 0.0059796409
0.39871538 0.067749329 0.0059736525
0.39866069 0.067065872 0.006968582
0.39869455 0.066395931 0.0069626081
0.39872843 0.065725982 0.0069566336
0.39876229 0.065056033 0.0069506597
0.39879614 0.064386085 0.0069446857
0.39883003 0.063716136 0.0069387113
0.39886388 0.063046187 0.0069327373
0.39889774 0.062376242 0.0069267633
0.39893162 0.061706293 0.0069207889
0.39896548 0.061036348 0.0069148149
0.39899936 0.0603664 0.006908841
0.39903322 0.059696451 0.0069028665
0.39906707 0.059026506 0.0068968926
0.39910096 0.058356557 0.0068909186
0.39904505 0.057696968 0.0078860912
0.39907885 0.057028614 0.0078801308
0.39911261 0.056360256 0.0078741712
0.39914641 0.055691902 0.0078682108
0.3991802 0.055023544 0.0078622513
0.39921397 0.054355189 0.0078562908
0.39924777 0.053686831 0.0078503313
0.39928156 0.053018477 0.0078443717
0.39931533 0.052350122 0.0078384113
0.39934912 0.051681764 0.0078324517
0.39938292 0.051013406 0.0078264913
0.39941669 0.050345052 0.0078205317
0.39945048 0.049676694 0.0078145722
0.39948428 0.04900834 0.0078086117
0.39951804 0.048339982 0.0078026517
0.39955184 0.047671627 0.0077966917
0.39958563 0.047003273 0.0077907322
0.3996194 0.046334911 0.0077847722
0.3996532 0.045666557 0.0077788122
0.39968699 0.044998202 0.0077728522
0.39972076 0.044329848 0.0077668922
0.39975455 0.04366149 0.0077609322
0.39978835 0.042993132 0.0077549727
0.39982212 0.042324778 0.0077490127
0.39985591 0.04165642 0.0077430527
0.39988971 0.040988065 0.0077370927
0.39992347 0.040319707 0.0077311327
0.39995727 0.039651353 0.0077251727
0.39999107 0.038982995 0.0077192127
0.40002483 0.038314641 0.0077132531
0.40005863 0.037646282 0.0077072931
0.40009242 0.036977924 0.0077013331
0.40012619 0.03630957 0.0076953731
0.40015998 0.035641212 0.0076894131
0.40010127 0.03503732 0.0086850524
0.40013498 0.03437056 0.0086791068
0.40026134 0.033636149 0.0076715336
0.40029514 0.032967791 0.0076655736
0.4003289 0.032299429 0.0076596136
0.4003627 0.031631079 0.0076536536
0.4003965 0.030962721 0.0076476936
0.40052333 0.030218758 0.0066400054
0.40074348 0.029394424 0.0046306062
0.40096396 0.028563719 0.002621121
0.40118477 0.027726648 0.00061157835
0.36134249 0.06204829 0.42836043
0.36134249 0.06204829 0.42836043
0.36134249 0.06204829 0.42836043
0.36134249 0.06204829 0.42836043
0.36134249 0.06204829 0.42836043
0.36134249 0.06204829 0.42836043
0.36134249 0.06204829 0.42836043
0.36134249 0.06204829 0.42836043
0.36134249 0.06204829 0.42836043
0.36134249 0.06204829 0.42836043
0.36134249 0.06204829 0.42836043
0.36134249 0.06204829 0.42836043
0.36134249 0.06204829 0.42836043
0.36134249 0.06204829 0.42836043
0.36134249 0.06204829 0.42836043
0.36134249 0.06204829 0.42836043
0.36134249 0.06204829 0.42836043
0.36134249 0.06204829 0.42836043
0.36134249 0.06204829 0.42836043
0.36134249 0.06204829 0.42836043
0.36134249 0.06204829 0.42836043
0.36134249 0.06204829 0.42836043
0.36134249 0.06204829 0.42836043
0.36134249 0.06204829 0.42836043
0.36134249 0.06204829 0.42836043
0.36134249 0.06204829 0.42836043
0.36134249 0.06204829 0.42836043
0.36134249 0.06204829 0.42836043
0.36134249 0.06204829 0.42836043
0.36134249 0.06204829 0.42836043
0.36134249 0.06204829 0.42836043
0.36134249 0.06204829 0.42836043
0.36134249 0.06204829 0.42836043
0.36134249 0.06204829 0.42836043
0.36134249 0.06204829 0.42836043
0.36134249 0.06204829 0.42836043
0.36134249 0.06204829 0.42836043
0.36134249 0.06204829 0.42836043
0.36134249 0.06204829 0.42836043
0.36134249 0.06204829 0.42836043
0.36134249 0.06204829 0.42836043
0.36134249 0.06204829 0.42836043
0.36134249 0.06204829 0.42836043
0.36134249 0.06204829 0.42836043
0.36134249 0.06204829 0.42836043
0.36134249 0.06204829 0.42836043
0.36134249 0.06204829 0.42836043
0.36134249 0.06204829 0.42836043
0.36134249 0.06204829 0.42836043
0.36134249 0.06204829 0.42836043
0.36134249 0.06204829 0.42836043
0.36134249 0.06204829 0.42836043
0.36134249 0.06204829 0.42836043
0.36134249 0.06204829 0.42836043
0.36134249 0.06204829 0.42836043
0.36134249 0.06204829 0.42836043
0.36134249 0.06204829 0.42836043
0.36134249 0.06204829 0.42836043
0.36134249 0.06204829 0.42836043
0.36134249 0.06204829 0.42836043
0.36134249 0.06204829 0.42836043
0.36134249 0.06204829 0.42836043
0.36134249 0.06204829 0.42836043
0.36134249 0.06204829 0.42836043
0.36134249 0.06204829 0.42836043
0.36134249 0.06204829 0.42836043
0.36134249 0.06204829 0.42836043
0.36134249 0.06204829 0.42836043
0.36134249 0.06204829 0.42836043
0.36134249 0.06204829 0.42836043
0.36134249 0.06204829 0.42836043
0.36134249 0.06204829 0.42836043
0.36134249 0.06204829 0.42836043
0.36134249 0.06204829 0.42836043
0.36134249 0.06204829 0.42836043
0.36134249 0.06204829 0.42836043
0.36134249 0.06204829 0.42836043
0.36134249 0.06204829 0.42836043
0.36134249 0.06204829 0.42836043
0.36134249 0.06204829 0.42836043
0.36134249 0.06204829 0.42836043
0.36134249 0.06204829 0.42836043
0.36134249 0.06204829 0.42836043
0.39087 0.19772179 0.014016756
0.39083216 0.19673605 0.015009286
0.39086545 0.19607724 0.015003411
0.39089876 0.19541845 0.014997536
0.39093205 0.19475964 0.014991662
0.39096537 0.19410083 0.014985787
0.39092702 0.19312464 0.015978433
0.39088854 0.19215164 0.016971078
0.39092168 0.19149601 0.016965231
0.39088294 0.19052778 0.017957948
0.39084405 0.18956274 0.018950662
0.39080501 0.18860087 0.019943437
0.39069366 0.18733436 0.021934815
0.39065421 0.18638046 0.022927629
0.39054233 0.18512508 0.024919106
0.39050245 0.18417914 0.025911991
0.39046243 0.18323638 0.026904935
0.39042225 0.18229678 0.027897878
0.39038193 0.18136039 0.028890878
0.39034143 0.18042718 0.029883876
0.39030075 0.17949714 0.030876903
0.39033276 0.17886379 0.030871255
0.39029187 0.17793854 0.031864356
0.39032382 0.17730677 0.031858724
0.39028266 0.17638628 0.032851834
0.39031452 0.17575611 0.032846216
0.39027312 0.17484041 0.033839401
0.39030489 0.17421181 0.033833794
0.39026326 0.17330089 0.034826994
0.39029497 0.17267391 0.034821402
0.3902531 0.17176774 0.035814673
0.39028472 0.17114235 0.035809096
0.39024261 0.17024095 0.036802378
0.39020032 0.16934276 0.037795689
0.39023179 0.16872054 0.037790142
0.39018926 0.1678271 0.038783524
0.39014658 0.16693686 0.039776906
0.39010376 0.16604979 0.040770348
0.39013496 0.16543235 0.040764842
0.3900919 0.16455005 0.041758295
0.39012304 0.16393422 0.041752804
0.39007971 0.16305669 0.042746328
0.39011076 0.16244243 0.042740852
0.39006719 0.16156968 0.04373439
0.39009818 0.16095702 0.043728925
0.39012915 0.16034438 0.043723464
0.39008525 0.15947798 0.044717088
0.39011616 0.15886691 0.044711638
0.39014703 0.15825585 0.044706188
0.39017794 0.15764478 0.044700742
0.39020881 0.15703371 0.044695292
0.39023972 0.15642264 0.044689842
0.39027059 0.15581158 0.044684391
0.39022607 0.15495792 0.045678101
0.39025688 0.15434845 0.045672666
0.3902877 0.15373896 0.045667231
0.39031851 0.15312949 0.045661796
0.39034933 0.15252002 0.045656361
0.39038011 0.15191053 0.045650929
0.39048684 0.1515341 0.044646248
0.39051771 0.15092303 0.044640802
0.39054862 0.15031196 0.044635352
0.39057949 0.14970088 0.044629902
0.3906104 0.14908983 0.044624452
0.39064127 0.14847875 0.044619005
0.39074856 0.14809117 0.043614198
0.39077953 0.14747852 0.043608736
0.39081049 0.14686586 0.043603271
0.39084145 0.1462532 0.043597806
0.39087245 0.14564052 0.043592345
0.39098018 0.14524341 0.042587481
0.39101124 0.14462915 0.042582005
0.39104229 0.14401489 0.042576529
0.39107335 0.14340065 0.042571049
0.3911815 0.14299557 0.041566089
0.39121261 0.14237972 0.041560594
0.391321 0.14196986 0.040555619
0.39135224 0.14135243 0.040550113
0.39146087 0.14093779 0.039545067
0.39149216 0.14031878 0.039539546
0.39160103 0.13989937 0.038534485
0.39163241 0.13927874 0.038528949
0.39166379 0.13865814 0.038523417
0.39169514 0.13803752 0.038517881
0.39180443 0.13761015 0.03751272
0.3918359 0.13698794 0.037507173
0.39186734 0.13636574 0.037501626
0.39189881 0.13574353 0.037496075
0.39193025 0.13512133 0.037490528
0.39196169 0.13449912 0.037484977
0.39191476 0.13369319 0.038479142
0.39194614 0.13307258 0.03847361
0.39197752 0.13245197 0.038468074
0.39200887 0.13183135 0.038462538
0.39196154 0.13103339 0.039456744
0.39199284 0.13041438 0.039451227
0.39202413 0.12979534 0.039445706
0.39205542 0.12917632 0.039440185
0.39208671 0.12855729 0.039434664
0.39203888 0.12776889 0.040428985
0.39207008 0.12715144 0.040423479
0.39210132 0.12653401 0.040417973
0.39213252 0.12591659 0.040412467
0.39216372 0.12529916 0.040406961
0.39219496 0.12468172 0.040401455
0.39222616 0.12406428 0.040395949
0.39225736 0.12344684 0.040390443
0.39236835 0.12298607 0.039384983
0.39239964 0.12236704 0.039379466
0.39243093 0.12174802 0.039373945
0.39246222 0.12112899 0.039368425
0.39249352 0.12050997 0.039362904
0.39260495 0.12003963 0.038357388
0.39263633 0.11941902 0.038351856
0.39266771 0.1187984 0.03834632
0.39269909 0.11817779 0.038340788
0.39281094 0.1176995 0.037335172
0.39284238 0.11707729 0.037329622
0.39287385 0.11645509 0.037324075
0.39298603 0.11597043 0.036318433
0.39301756 0.11534663 0.036312871
0.39312997 0.11485721 0.035307184
0.39316159 0.11423182 0.035301607
0.39327425 0.11373762 0.03429585
0.39330593 0.11311064 0.034290258
0.36134249 0.06204829 0.42836043
0.36134249 0.06204829 0.42836043
0.36134249 0.06204829 0.42836043
0.36134249 0.06204829 0.42836043
0.36134249 0.06204829 0.42836043
0.36134249 0.06204829 0.42836043
0.36134249 0.06204829 0.42836043
0.39690456 0.10262772 -0.00084989681
0.39685607 0.10185204 0.0001445067
0.39680746 0.10107954 0.0011389692
0.39675868 0.10031023 0.0021334295
0.39670971 0.0995441 0.0031279486
0.39674389 0.098867789 0.0031219178
0.39669472 0.098106429 0.004116449
0.39672881 0.097431712 0.0041104322
0.39676294 0.096756987 0.0041044159
0.39671341 0.096001998 0.0050990344
0.39674744 0.095328867 0.0050930316
0.39678147 0.094655737 0.0050870292
0.39681551 0.093982607 0.0050810268
0.39684954 0.093309477 0.0050750244
0.39688355 0.092636347 0.0050690216
0.39691758 0.091963217 0.0050630192
0.39695162 0.091290087 0.0050570169
0.39698565 0.090616956 0.0050510145
0.39701965 0.089943826 0.0050450116
0.39705369 0.089270696 0.0050390093
0.39708772 0.088597566 0.0050330069
0.39703715 0.087863266 0.0060277791
0.39707109 0.087191723 0.0060217911
0.39710507 0.086520188 0.0060158027
0.39713901 0.085848644 0.0060098143
0.39717296 0.085177109 0.0060038259
0.3972069 0.084505565 0.0059978375
0.39724085 0.08383403 0.0059918491
0.39727479 0.083162494 0.0059858612
0.39730874 0.082490951 0.0059798728
0.39734268 0.081819415 0.0059738844
0.39737663 0.081147872 0.005967896
0.39741057 0.080476336 0.005961908
0.39744452 0.0798048 0.0059559196
0.39747846 0.079133257 0.0059499312
0.39751241 0.078461722 0.0059439428
0.39754635 0.077790178 0.0059379544
0.3975803 0.077118643 0.0059319665
0.39761427 0.076447099 0.0059259781
0.39764822 0.075775564 0.0059199897
0.39768216 0.075104028 0.0059140013
0.3977161 0.074432485 0.0059080129
0.39775005 0.073760949 0.0059020249
0.39778399 0.073089406 0.0058960365
0.39781794 0.07241787 0.0058900481
0.39785188 0.071746327 0.0058840597
0.39788583 0.071074791 0.0058780713
0.39791977 0.070403256 0.0058720834
0.39795372 0.069731712 0.005866095
0.39798766 0.069060177 0.0058601066
0.39802161 0.068388633 0.0058541181
0.39796856 0.067703664 0.0068493313
0.39800245 0.067033716 0.0068433573
0.3980363 0.066363767 0.0068373829
0.39807016 0.065693818 0.0068314089
0.39810404 0.065023877 0.006825435
0.3981379 0.064353928 0.0068194605
0.39817175 0.063683979 0.0068134866
0.39820564 0.06301403 0.0068075126
0.39823949 0.062344082 0.0068015382
0.39827338 0.061674137 0.0067955642
0.39830723 0.061004188 0.0067895902
0.39834109 0.060334239 0.0067836158
0.398287 0.059669957 0.0077790427
0.39832079 0.059001599 0.0077730827
0.39835456 0.058333244 0.0077671227
0.39838836 0.057664886 0.0077611627
0.39842215 0.056996532 0.0077552032
0.39845592 0.056328174 0.0077492432
0.39848971 0.055659819 0.0077432832
0.39852351 0.054991461 0.0077373232
0.39855728 0.054323107 0.0077313632
0.39859107 0.053654749 0.0077254032
0.39862487 0.052986395 0.0077194432
0.39865863 0.05231804 0.0077134836
0.39869243 0.051649682 0.0077075236
0.39872622 0.050981328 0.0077015636
0.39875999 0.05031297 0.0076956037
0.39879379 0.049644612 0.0076896437
0.39882758 0.048976257 0.0076836837
0.39886135 0.048307899 0.0076777241
0.39889514 0.047639545 0.0076717641
0.39892894 0.046971191 0.0076658041
0.39896271 0.046302829 0.0076598441
0.3989965 0.045634475 0.0076538841
0.3990303 0.04496612 0.0076479241
0.39906406 0.044297766 0.0076419641
0.39909786 0.043629408 0.0076360046
0.39913166 0.042961054 0.0076300446
0.39916542 0.042292695 0.0076240846
0.39919922 0.041624337 0.0076181246
0.39923301 0.040955983 0.0076121646
0.39926678 0.040287625 0.0076062046
0.39930058 0.039619271 0.0076002446
0.39933437 0.038950913 0.0075942851
0.39936814 0.038282558 0.0075883251
0.39940193 0.0376142 0.0075823651
0.39943573 0.036945842 0.0075764051
0.39937872 0.036338847 0.008572313
0.39941242 0.03567208 0.0085663674
0.39944613 0.035005316 0.0085604219
0.39947984 0.034338553 0.0085544763
0.39951354 0.033671789 0.0085485307
0.39954725 0.033005025 0.0085425852
0.39967221 0.032267347 0.0075346855
0.39970601 0.031598996 0.0075287255
0.3997398 0.030930638 0.0075227655
0.39986509 0.030186599 0.0065147807
0.40008211 0.029362112 0.0045047868
0.40029946 0.028531255 0.0024947063
0.36134249 0.06204829 0.42836043
0.36134249 0.06204829 0.42836043
0.36134249 0.06204829 0.42836043
0.36134249 0.06204829 0.42836043
0.36134249 0.06204829 0.42836043
0.36134249 0.06204829 0.42836043
0.36134249 0.06204829 0.42836043
0.36134249 0.06204829 0.42836043
0.36134249 0.06204829 0.42836043
0.36134249 0.06204829 0.42836043
0.36134249 0.06204829 0.42836043
0.36134249 0.06204829 0.42836043
0.36134249 0.06204829 0.42836043
0.36134249 0.06204829 0.42836043
0.36134249 0.06204829 0.42836043
0.36134249 0.06204829 0.42836043
0.36134249 0.06204829 0.42836043
0.36134249 0.06204829 0.42836043
0.36134249 0.06204829 0.42836043
0.36134249 0.06204829 0.42836043
0.36134249 0.06204829 0.42836043
0.36134249 0.06204829 0.42836043
0.36134249 0.06204829 0.42836043
0.36134249 0.06204829 0.42836043
0.36134249 0.06204829 0.42836043
0.36134249 0.06204829 0.42836043
0.36134249 0.06204829 0.42836043
0.36134249 0.06204829 0.42836043
0.36134249 0.06204829 0.42836043
0.36134249 0.06204829 0.42836043
0.36134249 0.06204829 0.42836043
0.36134249 0.06204829 0.42836043
0.36134249 0.06204829 0.42836043
0.36134249 0.06204829 0.42836043
0.36134249 0.06204829 0.42836043
0.36134249 0.06204829 0.42836043
0.36134249 0.06204829 0.42836043
0.36134249 0.06204829 0.42836043
0.36134249 0.06204829 0.42836043
0.36134249 0.06204829 0.42836043
0.36134249 0.06204829 0.42836043
0.36134249 0.06204829 0.42836043
0.36134249 0.06204829 0.42836043
0.36134249 0.06204829 0.42836043
0.36134249 0.06204829 0.42836043
0.36134249 0.06204829 0.42836043
0.36134249 0.06204829 0.42836043
0.36134249 0.06204829 0.42836043
0.36134249 0.06204829 0.42836043
0.36134249 0.06204829 0.42836043
0.36134249 0.06204829 0.42836043
0.36134249 0.06204829 0.42836043
0.36134249 0.06204829 0.42836043
0.36134249 0.06204829 0.42836043
0.36134249 0.06204829 0.42836043
0.36134249 0.06204829 0.42836043
0.36134249 0.06204829 0.42836043
0.36134249 0.06204829 0.42836043
0.36134249 0.06204829 0.42836043
0.36134249 0.06204829 0.42836043
0.36134249 0.06204829 0.42836043
0.36134249 0.06204829 0.42836043
0.36134249 0.06204829 0.42836043
0.36134249 0.06204829 0.42836043
0.36134249 0.06204829 0.42836043
0.36134249 0.06204829 0.42836043
0.36134249 0.06204829 0.42836043
0.36134249 0.06204829 0.42836043
0.36134249 0.06204829 0.42836043
0.36134249 0.06204829 0.42836043
0.36134249 0.06204829 0.42836043
0.36134249 0.06204829 0.42836043
0.36134249 0.06204829 0.42836043
0.36134249 0.06204829 0.42836043
0.36134249 0.06204829 0.42836043
0.36134249 0.06204829 0.42836043
0.36134249 0.06204829 0.42836043
0.36134249 0.06204829 0.42836043
0.36134249 0.06204829 0.42836043
0.36134249 0.06204829 0.42836043
0.36134249 0.06204829 0.42836043
0.36134249 0.06204829 0.42836043
0.36134249 0.06204829 0.42836043
0.36134249 0.06204829 0.42836043
0.39022112 0.19769008 0.013893316
0.3902545 0.19702969 0.013887426
0.39021814 0.19604561 0.014880268
0.39025146 0.19538683 0.014874394
0.39028475 0.19472802 0.014868519
0.39031807 0.19406921 0.014862644
0.39028129 0.19309309 0.015855588
0.39031452 0.19243588 0.015849726
0.3902775 0.19146454 0.016842682
0.39024034 0.19049639 0.017835697
0.390203 0.18953142 0.018828709
0.39016551 0.18856964 0.01982178
0.39012787 0.18761104 0.020814849
0.39001942 0.18634944 0.022806864
0.38998136 0.1853988 0.023800006
0.38987234 0.18414836 0.02579212
0.3898339 0.18320568 0.026785361
0.38979527 0.18226616 0.027778601
0.3897565 0.18132983 0.028771898
0.38971755 0.18039669 0.029765194
0.38974965 0.17976175 0.029759534
0.38971049 0.1788334 0.030752873
0.38967115 0.1779082 0.031746268
0.38970307 0.17727645 0.031740636
0.38973501 0.17664468 0.031735003
0.38969535 0.17572586 0.032728426
0.38972721 0.17509571 0.032722808
0.3896873 0.17418164 0.033716302
0.38971907 0.17355308 0.0337107
0.38967893 0.17264383 0.034704208
0.38971063 0.17201683 0.034698617
0.38967025 0.17111233 0.0356922
0.38970184 0.17048694 0.035686623
0.38966122 0.16958722 0.036680218
0.38962042 0.16869067 0.037673838
0.38965189 0.16806847 0.037668291
0.38961086 0.16717669 0.038661987
0.38956967 0.16628812 0.039655682
0.3895283 0.16540271 0.040649433
0.38955954 0.16478528 0.040643927
0.38951793 0.16390465 0.041637693
0.38954908 0.16328882 0.041632198
0.38950723 0.16241294 0.042626034
0.38953829 0.1617987 0.042620558
0.38949621 0.16092762 0.04361441
0.38952717 0.16031496 0.043608945
0.38955814 0.1597023 0.043603484
0.38951576 0.15883759 0.044597421
0.38954663 0.1582265 0.044591971
0.38957754 0.15761544 0.044586521
0.38960841 0.15700437 0.044581071
0.38963932 0.1563933 0.044575624
0.38967019 0.15578224 0.044570174
0.3897011 0.15517117 0.044564724
0.38973197 0.1545601 0.044559274
0.38976288 0.15394904 0.044553827
0.38979375 0.15333797 0.044548377
0.38982466 0.1527269 0.044542927
0.38985553 0.15211582 0.044537481
0.38988644 0.15150476 0.044532031
0.38991731 0.15089369 0.044526581
0.38994822 0.15028262 0.044521131
0.38997909 0.14967155 0.044515684
0.39001 0.14906049 0.044510234
0.39004087 0.14844942 0.044504784
0.39014658 0.14806177 0.043499682
0.39017755 0.14744911 0.043494217
0.39020854 0.14683644 0.043488756
0.39023951 0.14622378 0.043483291
0.39027047 0.14561112 0.043477826
0.39037666 0.14521392 0.042472668
0.39040771 0.14459966 0.042467192
0.39043877 0.14398542 0.042461712
0.39046982 0.14337116 0.042456236
0.39057639 0.142966 0.041450974
0.39060754 0.14235017 0.041445483
0.39071438 0.14194022 0.040440209
0.39074558 0.14132279 0.040434703
0.39085266 0.14090808 0.039429359
0.39088395 0.14028905 0.039423838
0.39099124 0.13986957 0.038418479
0.39102262 0.13924895 0.038412947
0.391054 0.13862835 0.038407411
0.39116165 0.1382025 0.037401967
0.39119309 0.13758029 0.03739642
0.39122453 0.13695808 0.037390869
0.391256 0.13633586 0.037385322
0.39128745 0.13571367 0.037379775
0.39131889 0.13509145 0.037374225
0.39135036 0.13446924 0.037368678
0.3913818 0.13384704 0.037363127
0.39141327 0.13322483 0.03735758
0.39136773 0.13242218 0.038352069
0.39139909 0.13180156 0.038346536
0.39143047 0.13118094 0.038341001
0.39146185 0.13056032 0.038335469
0.39141589 0.12976563 0.039329998
0.39144719 0.12914661 0.039324477
0.39147848 0.12852758 0.03931896
0.39150977 0.12790856 0.039313439
0.39146346 0.12712181 0.040308069
0.39149466 0.12650438 0.040302563
0.39152586 0.12588695 0.040297057
0.39155707 0.12526952 0.040291552
0.3915883 0.12465208 0.040286046
0.39169753 0.12419441 0.039280318
0.39172882 0.12357537 0.039274797
0.39176011 0.12295636 0.03926928
0.3917914 0.12233733 0.039263759
0.3918227 0.12171831 0.039258238
0.39185399 0.12109928 0.039252717
0.39188528 0.12048025 0.0392472
0.39199519 0.12000985 0.038241386
0.39202654 0.11938923 0.038235851
0.39205793 0.11876861 0.038230319
0.39208931 0.118148 0.038224783
0.39219958 0.11766963 0.037218869
0.39223105 0.11704743 0.037213322
0.39234158 0.11656429 0.036207397
0.39237311 0.11594049 0.036201835
0.39240465 0.11531669 0.036196269
0.39251548 0.11482719 0.035190288
0.39262652 0.11433451 0.034184247
0.3926582 0.11370753 0.034178656
0.39268991 0.11308054 0.034173064
0.39280123 0.11258149 0.033166997
0.36134249 0.06204829 0.42836043
0.36134249 0.06204829 0.42836043
0.36134249 0.06204829 0.42836043
0.36134249 0.06204829 0.42836043
0.36134249 0.06204829 0.42836043
0.36134249 0.06204829 0.42836043
0.36134249 0.06204829 0.42836043
0.39626828 0.10191227 -0.00098358968
0.39622131 0.10113826 1.1126258e-05
0.39617416 0.10036743 0.0010058999
0.39620852 0.099687934 0.00099984067
0.39616114 0.09892188 0.0019946268
0.39611357 0.098159008 0.0029894714
0.39614779 0.097482696 0.0029834406
0.39609998 0.0967246 0.0039782985
0.39605203 0.095969684 0.0049732141
0.39608607 0.095296554 0.0049672117
0.3961201 0.094623424 0.0049612089
0.39615414 0.093950294 0.0049552065
0.39618814 0.093277164 0.0049492042
0.39622217 0.092604034 0.0049432018
0.39625621 0.091930903 0.0049371989
0.39629024 0.091257773 0.0049311966
0.39632425 0.090584643 0.0049251942
0.39635828 0.089911513 0.0049191918
0.39639232 0.089238383 0.004913189
0.39634341 0.088502564 0.0059082448
0.39637735 0.087831028 0.0059022568
0.3964113 0.087159492 0.0058962684
0.39644524 0.086487949 0.00589028
0.39647919 0.085816413 0.0058842916
0.39651313 0.085144877 0.0058783032
0.39654708 0.084473334 0.0058723153
0.39658102 0.083801791 0.0058663269
0.39661497 0.083130255 0.0058603385
0.39664891 0.08245872 0.00585435
0.39668286 0.081787176 0.0058483616
0.3967168 0.081115641 0.0058423737
0.39675075 0.080444098 0.0058363853
0.39678469 0.079772562 0.0058303969
0.39681867 0.079101026 0.0058244085
0.39685261 0.078429483 0.0058184201
0.39688656 0.077757947 0.0058124322
0.3969205 0.077086404 0.0058064437
0.39695445 0.076414868 0.0058004553
0.39698839 0.075743325 0.0057944669
0.39702234 0.075071789 0.0057884785
0.39705628 0.074400254 0.0057824906
0.39709023 0.07372871 0.0057765022
0.39712417 0.073057175 0.0057705138
0.39715812 0.072385632 0.0057645254
0.39719206 0.071714096 0.005758537
0.39722601 0.07104256 0.005752549
0.39725995 0.070371017 0.0057465606
0.3972939 0.069699481 0.0057405722
0.39732787 0.069027938 0.0057345838
0.39727646 0.068341456 0.0067300797
0.39731032 0.067671508 0.0067241057
0.39734417 0.067001559 0.0067181317
0.39737806 0.06633161 0.0067121573
0.39741191 0.065661661 0.0067061833
0.39744577 0.064991713 0.0067002093
0.39747965 0.064321771 0.0066942349
0.39751351 0.063651823 0.0066882609
0.39754736 0.062981874 0.006682287
0.39758125 0.062311925 0.0066763125
0.3976151 0.061641976 0.0066703386
0.39764899 0.060972031 0.0066643646
0.39759654 0.060306229 0.0076600756
0.3976303 0.059637874 0.0076541156
0.3976641 0.058969516 0.0076481556
0.3976979 0.058301162 0.0076421956
0.39773166 0.057632804 0.0076362356
0.39776546 0.05696445 0.0076302756
0.39779925 0.056296092 0.0076243156
0.39783302 0.055627737 0.007618356
0.39786682 0.054959379 0.007612396
0.39790061 0.054291025 0.007606436
0.39793438 0.053622667 0.007600476
0.39796817 0.052954312 0.007594516
0.39800197 0.052285958 0.007588556
0.39803573 0.0516176 0.007582596
0.39806953 0.050949246 0.0075766365
0.39810333 0.050280888 0.0075706765
0.39813709 0.04961253 0.0075647165
0.39817089 0.048944175 0.0075587565
0.39820468 0.048275817 0.0075527965
0.39823845 0.047607463 0.0075468365
0.39827225 0.046939109 0.007540877
0.39830604 0.04627075 0.007534917
0.39833981 0.045602392 0.007528957
0.3983736 0.044934038 0.007522997
0.3984074 0.044265684 0.007517037
0.39844117 0.043597326 0.007511077
0.39847496 0.042928971 0.007505117
0.39850876 0.042260613 0.0074991575
0.39854252 0.041592255 0.0074931975
0.39857632 0.040923901 0.0074872375
0.39861012 0.040255543 0.0074812775
0.39864388 0.039587189 0.0074753175
0.39867768 0.03891883 0.0074693575
0.39871147 0.038250476 0.0074633975
0.39874524 0.037582118 0.0074574379
0.3986899 0.036973603 0.008453629
0.3987236 0.036306839 0.0084476834
0.39875731 0.035640076 0.0084417369
0.39879102 0.034973308 0.0084357914
0.39882472 0.034306549 0.0084298458
0.39885843 0.033639785 0.0084239002
0.39898175 0.032903627 0.0074157184
0.39901555 0.032235265 0.0074097584
0.39904931 0.031566914 0.0074037984
0.39917296 0.030824387 0.006395529
0.39929676 0.030078685 0.005387262
0.39951077 0.029252447 0.0033766294
0.39972505 0.02841985 0.0013659395
0.36134249 0.06204829 0.42836043
0.36134249 0.06204829 0.42836043
0.36134249 0.06204829 0.42836043
0.36134249 0.06204829 0.42836043
0.36134249 0.06204829 0.42836043
0.36134249 0.06204829 0.42836043
0.36134249 0.06204829 0.42836043
0.36134249 0.06204829 0.42836043
0.36134249 0.06204829 0.42836043
0.36134249 0.06204829 0.42836043
0.36134249 0.06204829 0.42836043
0.36134249 0.06204829 0.42836043
0.36134249 0.06204829 0.42836043
0.36134249 0.06204829 0.42836043
0.36134249 0.06204829 0.42836043
0.36134249 0.06204829 0.42836043
0.36134249 0.06204829 0.42836043
0.36134249 0.06204829 0.42836043
0.36134249 0.06204829 0.42836043
0.36134249 0.06204829 0.42836043
0.36134249 0.06204829 0.42836043
0.36134249 0.06204829 0.42836043
0.36134249 0.06204829 0.42836043
0.36134249 0.06204829 0.42836043
0.36134249 0.06204829 0.42836043
0.36134249 0.06204829 0.42836043
0.36134249 0.06204829 0.42836043
0.36134249 0.06204829 0.42836043
0.36134249 0.06204829 0.42836043
0.36134249 0.06204829 0.42836043
0.36134249 0.06204829 0.42836043
0.36134249 0.06204829 0.42836043
0.36134249 0.06204829 0.42836043
0.36134249 0.06204829 0.42836043
0.36134249 0.06204829 0.42836043
0.36134249 0.06204829 0.42836043
0.36134249 0.06204829 0.42836043
0.36134249 0.06204829 0.42836043
0.36134249 0.06204829 0.42836043
0.36134249 0.06204829 0.42836043
0.36134249 0.06204829 0.42836043
0.36134249 0.06204829 0.42836043
0.36134249 0.06204829 0.42836043
0.36134249 0.06204829 0.42836043
0.36134249 0.06204829 0.42836043
0.36134249 0.06204829 0.42836043
0.36134249 0.06204829 0.42836043
0.36134249 0.06204829 0.42836043
0.36134249 0.06204829 0.42836043
0.36134249 0.06204829 0.42836043
0.36134249 0.06204829 0.42836043
0.36134249 0.06204829 0.42836043
0.36134249 0.06204829 0.42836043
0.36134249 0.06204829 0.42836043
0.36134249 0.06204829 0.42836043
0.36134249 0.06204829 0.42836043
0.36134249 0.06204829 0.42836043
0.36134249 0.06204829 0.42836043
0.36134249 0.06204829 0.42836043
0.36134249 0.06204829 0.42836043
0.36134249 0.06204829 0.42836043
0.36134249 0.06204829 0.42836043
0.36134249 0.06204829 0.42836043
0.36134249 0.06204829 0.42836043
0.36134249 0.06204829 0.42836043
0.36134249 0.06204829 0.42836043
0.36134249 0.06204829 0.42836043
0.36134249 0.06204829 0.42836043
0.36134249 0.06204829 0.42836043
0.36134249 0.06204829 0.42836043
0.36134249 0.06204829 0.42836043
0.36134249 0.06204829 0.42836043
0.36134249 0.06204829 0.42836043
0.36134249 0.06204829 0.42836043
0.36134249 0.06204829 0.42836043
0.36134249 0.06204829 0.42836043
0.36134249 0.06204829 0.42836043
0.36134249 0.06204829 0.42836043
0.36134249 0.06204829 0.42836043
0.36134249 0.06204829 0.42836043
0.36134249 0.06204829 0.42836043
0.36134249 0.06204829 0.42836043
0.36134249 0.06204829 0.42836043
0.36134249 0.06204829 0.42836043
0.38960564 0.19699799 0.013763986
0.38957083 0.19601399 0.014757126
0.38960415 0.19535519 0.014751251
0.38963744 0.1946964 0.014745376
0.38967076 0.19403759 0.014739501
0.38963553 0.19306155 0.015732743
0.38966876 0.19240433 0.015726881
0.38963333 0.19143307 0.016720135
0.38966647 0.19077745 0.016714288
0.36134249 0.06204829 0.42836043
0.38952601 0.18853839 0.019700125
0.38948992 0.18757987 0.02069349
0.38945368 0.18662451 0.021686915
0.38934812 0.18536787 0.02367954
0.38931146 0.18442048 0.024673035
0.38920534 0.18317497 0.026665788
0.38916829 0.18223552 0.027659325
0.38913107 0.18129928 0.028652919
0.3890937 0.18036622 0.029646514
0.38912579 0.17973128 0.029640852
0.38908818 0.17880298 0.030634489
0.38912022 0.17816964 0.030628841
0.38908234 0.17724612 0.031622551
0.38911429 0.17661436 0.031616915
0.38907617 0.17569561 0.032610636
0.38910803 0.17506546 0.032605018
0.38906971 0.17415148 0.033598814
0.38910148 0.1735229 0.033593208
0.38906288 0.17261373 0.034587014
0.38909459 0.17198674 0.034581423
0.38912627 0.17135975 0.034575831
0.38908738 0.17045692 0.035569724
0.389119 0.16983153 0.035564147
0.38907984 0.16893347 0.036558054
0.38904053 0.16803861 0.037551988
0.38900107 0.16714691 0.038545981
0.38903245 0.1665263 0.038540449
0.38899276 0.16563937 0.039534453
0.38895288 0.16475564 0.040528517
0.38898408 0.16413821 0.040523011
0.38894397 0.16325925 0.041517086
0.38897511 0.1626434 0.041511595
0.38893476 0.16176921 0.042505745
0.38896582 0.16115496 0.042500265
0.38892522 0.16028556 0.043494429
0.38895619 0.15967289 0.043488964
0.38898715 0.15906024 0.043483503
0.38901812 0.15844756 0.043478038
0.38897714 0.15758611 0.0444723
0.38900802 0.15697505 0.044466853
0.38903892 0.15636398 0.044461403
0.3890698 0.15575291 0.044455953
0.3891007 0.15514183 0.044450503
0.38913158 0.15453076 0.044445056
0.38916248 0.1539197 0.044439606
0.38919336 0.15330863 0.044434156
0.38922426 0.15269756 0.04442871
0.38925514 0.1520865 0.04442326
0.38928604 0.15147543 0.04441781
0.38931692 0.15086436 0.04441236
0.38934779 0.1502533 0.044406913
0.3893787 0.14964221 0.044401463
0.38940957 0.14903116 0.044396013
0.38944048 0.14842008 0.044390563
0.38954464 0.14803235 0.043385163
0.3895756 0.14741969 0.043379702
0.38960657 0.14680703 0.043374237
0.38963753 0.14619438 0.043368775
0.38966849 0.14558171 0.04336331
0.38969949 0.14496906 0.043357849
0.38980418 0.14457017 0.042352375
0.38983524 0.14395593 0.042346898
0.38986626 0.14334168 0.042341422
0.38997132 0.14293644 0.041335862
0.39000243 0.1423206 0.041330371
0.39010772 0.14191058 0.0403248
0.39013892 0.14129315 0.040319294
0.39024442 0.14087836 0.039313652
0.39027572 0.14025934 0.039308131
0.39038149 0.13983978 0.038302477
0.39041284 0.13921916 0.038296942
0.39044422 0.13859855 0.03829141
0.39055029 0.13817263 0.037285667
0.39058176 0.13755043 0.037280116
0.3906132 0.13692822 0.037274569
0.39064464 0.136306 0.037269019
0.39067611 0.1356838 0.037263472
0.39070755 0.13506159 0.037257925
0.39073902 0.13443938 0.037252374
0.39077047 0.13381718 0.037246827
0.39080191 0.13319497 0.03724128
0.39083338 0.13257276 0.037235729
0.39078933 0.13177177 0.038230531
0.39082068 0.13115115 0.038224999
0.39085206 0.13053054 0.038219463
0.39088345 0.12990992 0.038213927
0.39083898 0.12911689 0.03920877
0.39087027 0.12849787 0.039203253
0.39090157 0.12787884 0.039197732
0.39093286 0.12725982 0.039192211
0.39096415 0.1266408 0.03918669
0.39099544 0.12602177 0.039181173
0.39102674 0.12540275 0.039175652
0.39105803 0.12478372 0.039170131
0.39108932 0.12416469 0.03916461
0.39112061 0.12354566 0.039159093
0.39115191 0.12292664 0.039153572
0.3911832 0.12230761 0.039148051
0.39121449 0.12168859 0.03914253
0.39124578 0.12106957 0.03913701
0.39135402 0.12060068 0.038130917
0.39138541 0.11998005 0.038125381
0.39141676 0.11935943 0.038119849
0.39144814 0.11873882 0.038114313
0.3915568 0.11826198 0.037108116
0.39158824 0.11763977 0.037102569
0.39161968 0.11701756 0.037097018
0.39172867 0.11653434 0.036090795
0.3917602 0.11591054 0.036085233
0.3918694 0.11542256 0.035078969
0.39190102 0.11479717 0.035073392
0.39201048 0.11430441 0.034067053
0.39204216 0.11367743 0.034061462
0.39207387 0.11305045 0.03405587
0.39218363 0.11255132 0.033049505
0.36134249 0.06204829 0.42836043
0.36134249 0.06204829 0.42836043
0.36134249 0.06204829 0.42836043
0.36134249 0.06204829 0.42836043
0.36134249 0.06204829 0.42836043
0.36134249 0.06204829 0.42836043
0.36134249 0.06204829 0.42836043
0.36134249 0.06204829 0.42836043
0.36134249 0.06204829 0.42836043
0.39562097 0.099743389 -0.00012832832
0.39557523 0.098975822 0.00086677133
0.39552933 0.098211437 0.0018618695
0.39548326 0.097450234 0.0028570259
0.39551747 0.096773922 0.0028509949
0.39547116 0.096017495 0.0038461641
0.39542469 0.095264241 0.0048413915
0.39545873 0.094591118 0.0048353891
0.39549273 0.093917981 0.0048293862
0.39552677 0.093244851 0.0048233839
0.3955608 0.092571728 0.0048173815
0.39559484 0.091898598 0.0048113791
0.39562884 0.091225468 0.0048053763
0.39566287 0.09055233 0.0047993739
0.39569691 0.089879207 0.0047933715
0.39573094 0.089206077 0.0047873687
0.39568359 0.088470332 0.0057827225
0.39571753 0.087798797 0.0057767341
0.39575148 0.087127253 0.0057707457
0.39578542 0.086455718 0.0057647573
0.39581937 0.085784175 0.0057587693
0.39585331 0.085112639 0.0057527809
0.39588726 0.084441096 0.0057467925
0.3959212 0.08376956 0.0057408041
0.39595515 0.083098024 0.0057348157
0.39598909 0.082426481 0.0057288278
0.39602306 0.081754945 0.0057228394
0.39605701 0.081083402 0.005716851
0.39609095 0.080411866 0.0057108626
0.3961249 0.079740331 0.0057048742
0.39615884 0.079068787 0.0056988862
0.39619279 0.078397252 0.0056928978
0.39622673 0.077725708 0.0056869094
0.39626068 0.077054173 0.005680921
0.39629462 0.07638263 0.0056749326
0.39632857 0.075711094 0.0056689447
0.39636251 0.075039558 0.0056629563
0.39639646 0.074368015 0.0056569679
0.3964304 0.073696479 0.0056509795
0.39646435 0.073024936 0.0056449911
0.39649829 0.0723534 0.0056390031
0.39653224 0.071681857 0.0056330147
0.39656621 0.071010321 0.0056270263
0.39660016 0.070338786 0.0056210379
0.39655048 0.06964919 0.0066168029
0.39658433 0.068979241 0.0066108289
0.39661819 0.068309292 0.0066048549
0.39665207 0.067639351 0.0065988805
0.39668593 0.066969402 0.0065929065
0.39671978 0.066299453 0.0065869326
0.39675367 0.065629505 0.0065809581
0.39678752 0.064959556 0.0065749842
0.39682141 0.064289607 0.0065690102
0.39685526 0.063619658 0.0065630358
0.39688912 0.062949717 0.0065570618
0.39692301 0.062279768 0.0065510878
0.39695686 0.06160982 0.0065451134
0.39690605 0.060942505 0.0075411075
0.39693984 0.060274146 0.0075351475
0.39697361 0.059605792 0.0075291875
0.39700741 0.058937434 0.0075232275
0.3970412 0.05826908 0.0075172675
0.39707497 0.057600722 0.0075113075
0.39710876 0.056932367 0.0075053475
0.39714256 0.056264009 0.007499388
0.39717633 0.055595655 0.007493428
0.39721012 0.054927297 0.007487468
0.39724392 0.054258943 0.007481508
0.39727768 0.053590585 0.007475548
0.39731148 0.05292223 0.007469588
0.39734527 0.052253876 0.0074636284
0.39737904 0.051585518 0.0074576684
0.39741284 0.050917163 0.0074517084
0.39744663 0.050248805 0.0074457484
0.3974804 0.049580447 0.0074397884
0.39751419 0.048912093 0.0074338284
0.39754799 0.048243735 0.0074278684
0.39758176 0.047575381 0.0074219089
0.39761555 0.046907026 0.0074159489
0.39764935 0.046238668 0.0074099889
0.39768311 0.04557031 0.0074040289
0.39771691 0.044901956 0.0073980689
0.39775071 0.044233602 0.0073921089
0.39778447 0.043565243 0.0073861489
0.39781827 0.042896889 0.0073801894
0.39785206 0.042228531 0.0073742294
0.39788583 0.041560173 0.0073682694
0.39791963 0.040891819 0.0073623094
0.39795342 0.040223461 0.0073563494
0.39798719 0.039555106 0.0073503894
0.39802098 0.038886748 0.0073444294
0.39805478 0.038218394 0.0073384698
0.39800107 0.037608363 0.008334944
0.39803478 0.036941599 0.0083289985
0.39806849 0.036274835 0.0083230529
0.39810219 0.035608068 0.0083171073
0.3981359 0.034941304 0.0083111608
0.39816961 0.034274545 0.0083052153
0.39820331 0.033607777 0.0082992697
0.39823702 0.032941014 0.0082933242
0.39835885 0.032203183 0.0072848303
0.39839262 0.031534832 0.0072788703
0.39851472 0.030792229 0.0062703039
0.39863697 0.03004645 0.0052617393
0.39884782 0.02922006 0.0032505116
0.399059 0.02838731 0.0012392271
0.36134249 0.06204829 0.42836043
0.36134249 0.06204829 0.42836043
0.36134249 0.06204829 0.42836043
0.36134249 0.06204829 0.42836043
0.36134249 0.06204829 0.42836043
0.36134249 0.06204829 0.42836043
0.36134249 0.06204829 0.42836043
0.36134249 0.06204829 0.42836043
0.36134249 0.06204829 0.42836043
0.36134249 0.06204829 0.42836043
0.36134249 0.06204829 0.42836043
0.36134249 0.06204829 0.42836043
0.36134249 0.06204829 0.42836043
0.36134249 0.06204829 0.42836043
0.36134249 0.06204829 0.42836043
0.36134249 0.06204829 0.42836043
0.36134249 0.06204829 0.42836043
0.36134249 0.06204829 0.42836043
0.36134249 0.06204829 0.42836043
0.36134249 0.06204829 0.42836043
0.36134249 0.06204829 0.42836043
0.36134249 0.06204829 0.42836043
0.36134249 0.06204829 0.42836043
0.36134249 0.06204829 0.42836043
0.36134249 0.06204829 0.42836043
0.36134249 0.06204829 0.42836043
0.36134249 0.06204829 0.42836043
0.36134249 0.06204829 0.42836043
0.36134249 0.06204829 0.42836043
0.36134249 0.06204829 0.42836043
0.36134249 0.06204829 0.42836043
0.36134249 0.06204829 0.42836043
0.36134249 0.06204829 0.42836043
0.36134249 0.06204829 0.42836043
0.36134249 0.06204829 0.42836043
0.36134249 0.06204829 0.42836043
0.36134249 0.06204829 0.42836043
0.36134249 0.06204829 0.42836043
0.36134249 0.06204829 0.42836043
0.36134249 0.06204829 0.42836043
0.36134249 0.06204829 0.42836043
0.36134249 0.06204829 0.42836043
0.36134249 0.06204829 0.42836043
0.36134249 0.06204829 0.42836043
0.36134249 0.06204829 0.42836043
0.36134249 0.06204829 0.42836043
0.36134249 0.06204829 0.42836043
0.36134249 0.06204829 0.42836043
0.36134249 0.06204829 0.42836043
0.36134249 0.06204829 0.42836043
0.36134249 0.06204829 0.42836043
0.36134249 0.06204829 0.42836043
0.36134249 0.06204829 0.42836043
0.36134249 0.06204829 0.42836043
0.36134249 0.06204829 0.42836043
0.36134249 0.06204829 0.42836043
0.36134249 0.06204829 0.42836043
0.36134249 0.06204829 0.42836043
0.36134249 0.06204829 0.42836043
0.36134249 0.06204829 0.42836043
0.36134249 0.06204829 0.42836043
0.36134249 0.06204829 0.42836043
0.36134249 0.06204829 0.42836043
0.36134249 0.06204829 0.42836043
0.36134249 0.06204829 0.42836043
0.36134249 0.06204829 0.42836043
0.36134249 0.06204829 0.42836043
0.36134249 0.06204829 0.42836043
0.36134249 0.06204829 0.42836043
0.36134249 0.06204829 0.42836043
0.36134249 0.06204829 0.42836043
0.36134249 0.06204829 0.42836043
0.36134249 0.06204829 0.42836043
0.36134249 0.06204829 0.42836043
0.36134249 0.06204829 0.42836043
0.36134249 0.06204829 0.42836043
0.36134249 0.06204829 0.42836043
0.36134249 0.06204829 0.42836043
0.36134249 0.06204829 0.42836043
0.36134249 0.06204829 0.42836043
0.36134249 0.06204829 0.42836043
0.36134249 0.06204829 0.42836043
0.36134249 0.06204829 0.42836043
0.36134249 0.06204829 0.42836043
0.38895676 0.19696629 0.013640545
0.38892353 0.19598237 0.014633982
0.38895684 0.19532357 0.014628108
0.38899013 0.19466476 0.014622233
0.38902342 0.19400597 0.014616358
0.38905674 0.19334714 0.014610483
0.38902301 0.19237278 0.015604035
0.38898915 0.1914016 0.016597586
0.38902229 0.19074598 0.016591741
0.38898817 0.18977956 0.017585363
0.38895386 0.18881634 0.018578984
0.388852 0.18754871 0.020572133
0.36134249 0.06204829 0.42836043
0.38871488 0.18533693 0.023559073
0.3886798 0.18438962 0.024552867
0.38864455 0.1834455 0.025546659
0.38854131 0.1822049 0.027540049
0.38857359 0.18156677 0.027534358
0.38853785 0.18063219 0.028528266
0.38850194 0.17970079 0.029522171
0.38853404 0.17906585 0.029516509
0.38849792 0.17813924 0.030510457
0.38852993 0.1775059 0.03050481
0.38849357 0.17658404 0.031498831
0.38852549 0.17595229 0.031493194
0.38848889 0.17503521 0.032487229
0.38852075 0.17440504 0.032481611
0.38848388 0.17349273 0.033475716
0.38851565 0.17286417 0.033470109
0.38847855 0.17195664 0.034464229
0.38851026 0.17132965 0.034458637
0.38854194 0.17070268 0.034453046
0.38850451 0.1698015 0.035447251
0.38846695 0.16890353 0.036441457
0.38849849 0.16827974 0.036435895
0.38846064 0.16738653 0.037430137
0.38842267 0.16649652 0.038424443
0.38845405 0.16587588 0.038418908
0.38841581 0.16499063 0.039413225
0.38837743 0.16410857 0.040407602
0.38840863 0.16349113 0.040402096
0.38837001 0.16261384 0.041396484
0.38840115 0.161998 0.041390993
0.38836229 0.16112548 0.042385451
0.38839334 0.16051123 0.042379975
0.38835421 0.15964349 0.043374449
0.38838518 0.15903082 0.043368984
0.38841617 0.15841816 0.043363523
0.38844714 0.1578055 0.043358058
0.38840762 0.15694571 0.044352632
0.38843849 0.15633464 0.044347182
0.3884694 0.15572357 0.044341736
0.38850027 0.1551125 0.044336285
0.38853118 0.15450144 0.044330835
0.38856205 0.15389037 0.044325385
0.38859296 0.1532793 0.044319939
0.38862383 0.15266824 0.044314489
0.38865474 0.15205716 0.044309039
0.38868561 0.15144609 0.044303592
0.38871652 0.15083502 0.044298142
0.38874739 0.15022396 0.044292692
0.3887783 0.14961289 0.044287242
0.38880917 0.14900182 0.044281796
0.38884008 0.14839076 0.044276346
0.38894266 0.14800295 0.043270648
0.38897362 0.14739029 0.043265183
0.38900459 0.14677763 0.043259718
0.38903555 0.14616497 0.043254256
0.38906655 0.14555231 0.043248791
0.38909751 0.14493965 0.04324333
0.38920066 0.1445407 0.042237561
0.38923171 0.14392644 0.042232085
0.38926277 0.1433122 0.042226605
0.38929379 0.14269793 0.042221129
0.38939735 0.14229104 0.04121526
0.38950104 0.14188094 0.04020939
0.38953227 0.14126351 0.040203884
0.38963622 0.14084865 0.039197944
0.38966751 0.14022963 0.039192427
0.3897717 0.13981 0.038186472
0.38980305 0.13918938 0.038180936
0.38983443 0.13856876 0.038175404
0.38993895 0.13814276 0.037169363
0.38997039 0.13752055 0.037163816
0.39000186 0.13689834 0.037158266
0.3900333 0.13627614 0.037152719
0.39006475 0.13565393 0.037147168
0.39009622 0.13503173 0.037141621
0.39012766 0.13440952 0.037136074
0.3901591 0.1337873 0.037130523
0.39019057 0.13316511 0.037124977
0.39022201 0.13254289 0.03711943
0.39025348 0.13192068 0.037113879
0.39028493 0.13129848 0.037108332
0.39024228 0.13050075 0.038103458
0.39027366 0.12988013 0.038097925
0.39030501 0.12925951 0.03809239
0.39033639 0.12863889 0.038086858
0.39029336 0.12784913 0.039082024
0.39032465 0.12723011 0.039076503
0.39035594 0.12661108 0.039070986
0.39038724 0.12599206 0.039065465
0.39041853 0.12537302 0.039059944
0.39044982 0.124754 0.039054424
0.39048111 0.12413498 0.039048903
0.39051241 0.12351595 0.039043386
0.3905437 0.12289692 0.039037865
0.39057499 0.1222779 0.039032344
0.39060625 0.12165888 0.039026823
0.39071286 0.12119149 0.038020447
0.39074424 0.12057088 0.038014911
0.39077562 0.11995026 0.038009375
0.39080697 0.11932965 0.038003843
0.39091399 0.11885432 0.036997363
0.39094543 0.11823211 0.036991816
0.39097691 0.1176099 0.036986265
0.39108422 0.1171282 0.035979759
0.39111575 0.11650441 0.035974197
0.39122331 0.11601793 0.03496765
0.39125493 0.11539254 0.034962073
0.39136273 0.1149013 0.033955451
0.39139444 0.11427432 0.033949859
0.39142612 0.11364733 0.033944268
0.39153427 0.11314972 0.03293762
0.39156604 0.11252114 0.032932013
0.39159781 0.11189257 0.03292641
0.36134249 0.06204829 0.42836043
0.36134249 0.06204829 0.42836043
0.36134249 0.06204829 0.42836043
0.36134249 0.06204829 0.42836043
0.36134249 0.06204829 0.42836043
0.36134249 0.06204829 0.42836043
0.36134249 0.06204829 0.42836043
0.3950648 0.09911602 -0.0012631495
0.39502063 0.098348521 -0.00026778219
0.39497629 0.097584218 0.00072764279
0.39493179 0.096823089 0.0017230669
0.39488715 0.096065141 0.0027185495
0.39484233 0.095310383 0.0037140301
0.39487642 0.094635658 0.0037080136
0.39483136 0.093885675 0.004703566
0.39486539 0.093212545 0.0046975636
0.39489943 0.092539415 0.0046915612
0.39493343 0.091866285 0.0046855588
0.39496747 0.091193154 0.004679556
0.3950015 0.090520024 0.0046735536
0.39503554 0.089846894 0.0046675513
0.39506954 0.089173764 0.0046615489
0.39510357 0.088500634 0.004655546
0.39505771 0.087766558 0.0056512114
0.39509165 0.087095022 0.0056452234
0.3951256 0.086423479 0.005639235
0.39515954 0.085751943 0.0056332466
0.39519349 0.085080408 0.0056272582
