ply
format ascii 1.0
comment Created by CloudCompare v2.11 alpha (Anoia)
comment Created 9/27/19 9:44 PM
obj_info Generated by CloudCompare!
element vertex 1936
property float x
property float y
property float z
end_header
481.437 53.9 9.16449 
481.472 53.2093 9.15833 
481.507 52.5187 9.15217 
481.541 51.8281 9.14602 
481.576 51.1374 9.13986 
481.611 50.4468 9.1337 
481.646 49.7562 9.12754 
481.681 49.0655 9.12138 
481.716 48.3749 9.11522 
481.751 47.6843 9.10906 
481.508 47.0283 10.0689 
481.543 46.3393 10.0628 
481.578 45.6502 10.0566 
481.613 44.9612 10.0505 
481.648 44.2721 10.0443 
481.682 43.5831 10.0382 
481.717 42.8941 10.0321 
481.752 42.205 10.0259 
481.787 41.516 10.0198 
481.822 40.8269 10.0136 
481.857 40.1379 10.0075 
481.891 39.4488 10.0013 
481.926 38.7598 9.99519 
481.961 38.0708 9.98905 
481.996 37.3817 9.9829 
482.031 36.6927 9.97676 
482.066 36.0036 9.97061 
482.1 35.3146 9.96447 
482.135 34.6255 9.95832 
482.17 33.9365 9.95218 
482.205 33.2474 9.94604 
482.24 32.5584 9.93989 
482.275 31.8694 9.93375 
482.309 31.1803 9.9276 
482.344 30.4913 9.92146 
482.379 29.8022 9.91531 
482.414 29.1132 9.90917 
482.449 28.4241 9.90302 
482.484 27.7351 9.89688 
482.518 27.0461 9.89074 
482.553 26.357 9.88459 
483.148 25.4999 7.9455 
483.743 24.6365 6.00638 
484.619 23.6795 3.10066 
480.099 115.733 0.89291 
479.598 114.789 2.81653 
479.097 113.851 4.74021 
478.864 113.036 5.69895 
478.899 112.339 5.69273 
478.666 111.529 6.65154 
478.701 110.834 6.64534 
478.736 110.138 6.63914 
478.771 109.443 6.63294 
478.538 108.641 7.59179 
478.573 107.947 7.58561 
478.608 107.253 7.57942 
478.643 106.559 7.57323 
478.678 105.865 7.56704 
478.713 105.172 7.56086 
478.748 104.478 7.55467 
478.783 103.784 7.54848 
478.818 103.09 7.5423 
478.853 102.396 7.53611 
478.888 101.703 7.52992 
478.923 101.009 7.52374 
478.959 100.315 7.51755 
478.994 99.6211 7.51136 
479.029 98.9273 7.50517 
479.064 98.2334 7.49899 
479.099 97.5396 7.4928 
479.134 96.8458 7.48661 
479.169 96.152 7.48043 
479.204 95.4582 7.47424 
479.239 94.7643 7.46805 
479.274 94.0705 7.46187 
479.309 93.3767 7.45568 
479.344 92.6829 7.44949 
479.379 91.9891 7.4433 
479.415 91.2953 7.43712 
479.45 90.6014 7.43093 
479.485 89.9076 7.42474 
479.52 89.2138 7.41856 
479.555 88.52 7.41237 
479.59 87.8262 7.40618 
479.625 87.1324 7.4 
479.66 86.4385 7.39381 
479.695 85.7447 7.38762 
479.73 85.0509 7.38143 
479.765 84.3571 7.37525 
479.8 83.6633 7.36906 
479.835 82.9695 7.36287 
479.87 82.2756 7.35669 
479.906 81.5818 7.3505 
479.669 80.8448 8.30993 
479.704 80.1526 8.30376 
479.739 79.4603 8.29759 
479.774 78.7681 8.29142 
479.809 78.0759 8.28524 
479.844 77.3837 8.27907 
479.879 76.6914 8.2729 
479.914 75.9992 8.26672 
479.949 75.307 8.26055 
479.984 74.6148 8.25438 
480.019 73.9225 8.24821 
479.781 73.2046 9.20784 
479.816 72.514 9.20168 
479.85 71.8233 9.19552 
479.885 71.1327 9.18936 
479.92 70.4421 9.1832 
479.955 69.7514 9.17705 
479.99 69.0608 9.17089 
480.025 68.3702 9.16473 
480.06 67.6795 9.15857 
480.095 66.9889 9.15241 
480.13 66.2982 9.14625 
480.165 65.6076 9.14009 
480.2 64.917 9.13393 
480.234 64.2263 9.12778 
480.269 63.5357 9.12162 
480.304 62.8451 9.11546 
480.339 62.1544 9.1093 
480.374 61.4638 9.10314 
480.409 60.7732 9.09698 
480.169 60.0871 10.0569 
480.204 59.398 10.0507 
480.239 58.709 10.0446 
480.274 58.0199 10.0384 
480.309 57.3309 10.0323 
480.344 56.6418 10.0262 
480.379 55.9528 10.02 
480.413 55.2638 10.0139 
480.448 54.5747 10.0077 
480.758 53.8668 9.0354 
480.793 53.1762 9.02924 
480.828 52.4855 9.02308 
480.863 51.7949 9.01692 
480.898 51.1043 9.01076 
480.933 50.4137 9.00461 
480.692 49.7514 9.96471 
480.727 49.0624 9.95856 
480.762 48.3733 9.95242 
480.796 47.6843 9.94627 
480.831 46.9952 9.94013 
480.866 46.3062 9.93398 
480.901 45.6172 9.92784 
480.936 44.9281 9.92169 
480.971 44.2391 9.91555 
481.005 43.55 9.90941 
481.04 42.861 9.90326 
481.075 42.1719 9.89712 
481.11 41.4829 9.89097 
481.145 40.7938 9.88483 
481.18 40.1048 9.87868 
481.214 39.4158 9.87254 
481.249 38.7267 9.8664 
481.007 38.0931 10.8268 
481.042 37.4057 10.8206 
481.077 36.7182 10.8145 
481.111 36.0308 10.8084 
481.146 35.3433 10.8023 
481.181 34.6559 10.7961 
481.216 33.9684 10.79 
481.25 33.281 10.7839 
481.285 32.5935 10.7777 
481.598 31.8363 9.80495 
481.632 31.1472 9.79881 
481.667 30.4582 9.79266 
481.702 29.7691 9.78652 
481.737 29.0801 9.78037 
481.772 28.3911 9.77423 
481.807 27.702 9.76809 
481.841 27.013 9.76194 
482.155 26.2414 8.78905 
482.746 25.3826 6.84936 
483.06 24.6031 5.8764 
483.931 23.6459 2.96979 
479.175 114.875 1.72009 
478.677 113.936 3.64435 
478.446 113.119 4.6034 
478.214 112.306 5.56245 
477.983 111.496 6.52156 
478.018 110.8 6.51536 
478.053 110.105 6.50916 
478.088 109.41 6.50296 
477.856 108.607 7.4621 
477.891 107.914 7.45592 
477.926 107.22 7.44973 
477.961 106.526 7.44354 
477.996 105.832 7.43736 
478.031 105.138 7.43117 
478.066 104.444 7.42498 
478.102 103.751 7.4188 
478.137 103.057 7.41261 
478.172 102.363 7.40642 
478.207 101.669 7.40024 
478.242 100.975 7.39405 
478.277 100.282 7.38786 
478.312 99.5878 7.38167 
478.347 98.894 7.37549 
478.382 98.2001 7.3693 
478.417 97.5063 7.36311 
478.452 96.8125 7.35693 
478.219 96.0405 8.31635 
478.522 95.4249 7.34455 
478.557 94.731 7.33837 
478.593 94.0372 7.33218 
478.628 93.3434 7.32599 
478.663 92.6496 7.3198 
478.698 91.9558 7.31362 
478.733 91.262 7.30743 
478.768 90.5681 7.30124 
478.803 89.8743 7.29506 
478.838 89.1805 7.28887 
478.873 88.4867 7.28268 
478.908 87.7929 7.2765 
478.943 87.0991 7.27031 
478.978 86.4052 7.26412 
479.013 85.7114 7.25793 
479.048 85.0176 7.25175 
479.084 84.3238 7.24556 
479.119 83.63 7.23937 
478.883 82.8882 8.19906 
478.918 82.196 8.19289 
478.953 81.5038 8.18672 
478.988 80.8116 8.18054 
479.023 80.1193 8.17437 
479.058 79.4271 8.1682 
479.093 78.7349 8.16203 
479.128 78.0427 8.15585 
479.163 77.3504 8.14968 
479.198 76.6582 8.14351 
479.233 75.966 8.13733 
479.268 75.2738 8.13116 
479.303 74.5815 8.12499 
479.067 73.8621 9.08491 
479.102 73.1714 9.07875 
479.137 72.4808 9.07259 
479.172 71.7902 9.06643 
479.207 71.0995 9.06027 
479.242 70.4089 9.05411 
479.277 69.7183 9.04795 
479.311 69.0276 9.0418 
479.346 68.337 9.03564 
479.381 67.6464 9.02948 
479.416 66.9557 9.02332 
479.451 66.2651 9.01716 
479.486 65.5745 9.011 
479.521 64.8838 9.00484 
479.556 64.1932 8.99869 
479.591 63.5026 8.99253 
479.626 62.8119 8.98637 
479.388 62.1211 9.94651 
479.423 61.4321 9.94037 
479.458 60.743 9.93422 
479.492 60.054 9.92808 
479.527 59.3649 9.92193 
479.562 58.6759 9.91579 
479.597 57.9869 9.90965 
479.632 57.2978 9.9035 
479.667 56.6088 9.89736 
479.701 55.9197 9.89121 
479.736 55.2307 9.88507 
479.771 54.5416 9.87892 
479.806 53.8526 9.87278 
479.841 53.1636 9.86663 
479.876 52.4745 9.86049 
479.91 51.7855 9.85434 
479.945 51.0964 9.8482 
479.98 50.4074 9.84206 
480.015 49.7183 9.83591 
480.05 49.0293 9.82977 
480.085 48.3403 9.82362 
480.119 47.6512 9.81748 
480.154 46.9622 9.81133 
480.189 46.2731 9.80519 
480.224 45.5841 9.79905 
480.259 44.895 9.7929 
480.294 44.206 9.78676 
480.328 43.5169 9.78061 
480.363 42.8279 9.77447 
480.398 42.1389 9.76832 
480.433 41.4498 9.76218 
480.468 40.7608 9.75603 
480.503 40.0717 9.74989 
480.537 39.3827 9.74375 
480.297 38.7476 10.7044 
480.332 38.0601 10.6983 
480.366 37.3727 10.6922 
480.401 36.6852 10.686 
480.436 35.9978 10.6799 
480.471 35.3103 10.6738 
480.505 34.6229 10.6676 
480.54 33.9354 10.6615 
480.575 33.248 10.6554 
480.61 32.5605 10.6492 
480.644 31.8731 10.6431 
480.955 31.1142 9.67001 
480.99 30.4251 9.66387 
481.025 29.7361 9.65772 
481.06 29.047 9.65158 
481.095 28.358 9.64544 
481.13 27.6689 9.63929 
481.441 26.8989 8.66612 
481.476 26.2083 8.65996 
482.065 25.3493 6.71967 
482.654 24.484 4.77932 
483.243 23.6122 2.83891 
477.989 113.902 3.51347 
477.759 113.086 4.47282 
477.529 112.273 5.43217 
477.299 111.462 6.39157 
477.334 110.767 6.38537 
477.37 110.072 6.37917 
477.405 109.376 6.37297 
477.174 108.574 7.33242 
477.209 107.88 7.32623 
477.244 107.186 7.32004 
477.279 106.493 7.31386 
477.315 105.799 7.30767 
477.35 105.105 7.30148 
477.385 104.411 7.2953 
477.42 103.717 7.28911 
477.455 103.024 7.28292 
477.49 102.33 7.27674 
477.525 101.636 7.27055 
477.294 100.853 8.23017 
477.329 100.161 8.22399 
477.363 99.4684 8.21782 
477.399 98.7762 8.21165 
477.434 98.084 8.20547 
477.469 97.3918 8.1993 
477.503 96.6995 8.19313 
477.538 96.0073 8.18696 
477.573 95.3151 8.18078 
477.608 94.6229 8.17461 
477.643 93.9306 8.16844 
477.678 93.2384 8.16227 
477.713 92.5462 8.15609 
477.748 91.854 8.14992 
477.783 91.1617 8.14375 
478.086 90.5348 7.17156 
478.121 89.841 7.16537 
478.156 89.1472 7.15918 
478.191 88.4534 7.153 
478.226 87.7596 7.14681 
478.262 87.0658 7.14062 
478.297 86.3719 7.13444 
478.332 85.6781 7.12825 
478.367 84.9843 7.12206 
478.133 84.2395 8.08202 
478.168 83.5472 8.07585 
478.203 82.855 8.06967 
478.238 82.1628 8.0635 
478.273 81.4706 8.05733 
478.308 80.7783 8.05116 
478.343 80.0861 8.04498 
478.378 79.3939 8.03881 
478.413 78.7017 8.03264 
478.448 78.0094 8.02646 
478.483 77.3172 8.02029 
478.518 76.625 8.01412 
478.553 75.9327 8.00795 
478.319 75.2102 8.96813 
478.354 74.5196 8.96197 
478.389 73.8289 8.95581 
478.423 73.1383 8.94966 
478.458 72.4477 8.9435 
478.493 71.757 8.93734 
478.528 71.0664 8.93118 
478.563 70.3758 8.92502 
478.598 69.6851 8.91886 
478.633 68.9945 8.9127 
478.668 68.3039 8.90654 
478.703 67.6132 8.90039 
478.738 66.9226 8.89423 
478.773 66.2319 8.88807 
478.807 65.5413 8.88191 
478.572 64.8442 9.84229 
478.607 64.1552 9.83615 
478.641 63.4661 9.83001 
478.676 62.7771 9.82386 
478.711 62.088 9.81772 
478.746 61.399 9.81157 
478.781 60.71 9.80543 
478.815 60.0209 9.79928 
478.85 59.3319 9.79314 
478.885 58.6428 9.78699 
478.92 57.9538 9.78085 
478.955 57.2647 9.7747 
478.99 56.5757 9.76856 
479.024 55.8867 9.76242 
479.059 55.1976 9.75627 
479.094 54.5086 9.75013 
479.129 53.8195 9.74398 
479.164 53.1305 9.73784 
479.199 52.4414 9.7317 
479.233 51.7524 9.72555 
479.268 51.0634 9.71941 
479.303 50.3743 9.71326 
479.338 49.6853 9.70712 
479.373 48.9962 9.70097 
479.408 48.3072 9.69483 
479.442 47.6181 9.68868 
479.477 46.9291 9.68254 
479.512 46.24 9.6764 
479.547 45.551 9.67025 
479.582 44.862 9.66411 
479.617 44.1729 9.65796 
479.651 43.4839 9.65182 
479.686 42.7948 9.64567 
479.721 42.1058 9.63953 
479.756 41.4167 9.63338 
479.517 40.7769 10.5943 
479.552 40.0895 10.5882 
479.587 39.402 10.582 
479.621 38.7146 10.5759 
479.656 38.0271 10.5698 
479.691 37.3397 10.5637 
479.726 36.6522 10.5575 
479.76 35.9648 10.5514 
479.795 35.2773 10.5453 
479.83 34.5899 10.5391 
479.865 33.9024 10.533 
479.899 33.215 10.5269 
479.934 32.5275 10.5207 
479.969 31.8401 10.5146 
480.004 31.1526 10.5085 
480.313 30.392 9.53507 
480.348 29.703 9.52893 
480.383 29.014 9.52279 
480.418 28.3249 9.51664 
480.453 27.6359 9.5105 
480.763 26.8658 8.53703 
481.073 26.0925 7.56351 
481.383 25.316 6.58998 
481.969 24.4505 4.64903 
482.555 23.5786 2.70803 
477.565 113.986 2.41675 
477.337 113.168 3.37635 
477.108 112.354 4.33601 
476.616 111.429 6.26159 
476.651 110.734 6.25539 
476.686 110.038 6.24919 
476.722 109.343 6.24299 
476.757 108.647 6.23679 
476.528 107.847 7.19654 
476.563 107.153 7.19036 
476.598 106.459 7.18417 
476.633 105.766 7.17798 
476.668 105.072 7.1718 
476.703 104.378 7.16561 
476.738 103.684 7.15942 
476.773 102.99 7.15324 
476.543 102.204 8.11312 
476.578 101.512 8.10695 
476.613 100.82 8.10078 
476.648 100.127 8.0946 
476.683 99.4352 8.08843 
476.718 98.743 8.08226 
476.753 98.0508 8.07609 
476.788 97.3585 8.06991 
476.823 96.6663 8.06374 
476.858 95.9741 8.05757 
476.893 95.2819 8.05139 
476.928 94.5896 8.04522 
476.963 93.8974 8.03905 
476.998 93.2052 8.03288 
477.033 92.5129 8.0267 
477.068 91.8207 8.02053 
477.103 91.1285 8.01436 
477.138 90.4363 8.00818 
477.173 89.744 8.00201 
477.208 89.0518 7.99584 
477.243 88.3596 7.98967 
477.278 87.6674 7.98349 
477.313 86.9751 7.97732 
477.348 86.2829 7.97115 
477.383 85.5907 7.96498 
477.418 84.8985 7.9588 
477.453 84.2062 7.95263 
477.488 83.514 7.94646 
477.523 82.8218 7.94028 
477.558 82.1296 7.93411 
477.593 81.4373 7.92794 
477.628 80.7451 7.92177 
477.663 80.0529 7.91559 
477.698 79.3607 7.90942 
477.733 78.6684 7.90325 
477.768 77.9762 7.89707 
477.803 77.284 7.8909 
477.838 76.5918 7.88473 
477.605 75.8677 8.8452 
477.64 75.177 8.83904 
477.675 74.4864 8.83288 
477.71 73.7958 8.82672 
477.745 73.1051 8.82056 
477.78 72.4145 8.8144 
477.815 71.7239 8.80825 
477.85 71.0332 8.80209 
477.885 70.3426 8.79593 
477.919 69.652 8.78977 
477.954 68.9613 8.78361 
477.989 68.2707 8.77745 
478.024 67.5801 8.77129 
478.059 66.8894 8.76514 
477.825 66.1892 9.72579 
477.86 65.5002 9.71964 
477.895 64.8111 9.7135 
477.929 64.1221 9.70735 
477.964 63.4331 9.70121 
477.999 62.744 9.69507 
478.034 62.055 9.68892 
478.069 61.3659 9.68278 
478.104 60.6769 9.67663 
478.138 59.9878 9.67049 
478.173 59.2988 9.66434 
478.208 58.6098 9.6582 
478.243 57.9207 9.65206 
478.278 57.2317 9.64591 
478.313 56.5426 9.63977 
478.347 55.8536 9.63362 
478.382 55.1645 9.62748 
478.417 54.4755 9.62133 
478.452 53.7864 9.61519 
478.487 53.0974 9.60904 
478.522 52.4084 9.6029 
478.556 51.7193 9.59676 
478.591 51.0303 9.59061 
478.626 50.3412 9.58447 
478.661 49.6522 9.57832 
478.696 48.9631 9.57218 
478.731 48.2741 9.56603 
478.765 47.5851 9.55989 
478.8 46.896 9.55375 
478.835 46.207 9.5476 
478.87 45.5179 9.54146 
478.905 44.8289 9.53531 
478.94 44.1398 9.52917 
478.974 43.4508 9.52302 
479.009 42.7618 9.51688 
479.044 42.0727 9.51073 
478.807 41.4314 10.4719 
478.842 40.7439 10.4658 
478.876 40.0565 10.4597 
478.911 39.369 10.4535 
478.946 38.6816 10.4474 
478.981 37.9941 10.4413 
479.016 37.3067 10.4352 
479.05 36.6192 10.429 
479.085 35.9318 10.4229 
479.12 35.2443 10.4168 
479.155 34.5569 10.4106 
479.189 33.8694 10.4045 
479.224 33.182 10.3984 
479.259 32.4945 10.3922 
479.294 31.8071 10.3861 
479.328 31.1196 10.38 
479.363 30.4322 10.3739 
479.671 29.6699 9.40014 
479.706 28.9809 9.39399 
479.741 28.2918 9.38785 
479.776 27.6028 9.3817 
480.084 26.8326 8.40794 
480.393 26.0592 7.43412 
480.975 25.1984 5.49265 
481.558 24.3311 3.55109 
476.911 113.251 2.27932 
476.422 112.32 4.20543 
476.195 111.509 5.16539 
475.968 110.7 6.1254 
476.003 110.005 6.1192 
476.038 109.309 6.113 
476.073 108.614 6.1068 
475.846 107.814 7.06686 
475.881 107.12 7.06067 
475.916 106.426 7.05448 
475.951 105.732 7.0483 
475.986 105.038 7.04211 
476.021 104.345 7.03592 
476.056 103.651 7.02974 
475.828 102.863 7.98991 
475.863 102.171 7.98373 
475.898 101.479 7.97756 
475.933 100.786 7.97139 
475.968 100.094 7.96521 
476.003 99.402 7.95904 
476.038 98.7098 7.95287 
476.073 98.0175 7.9467 
476.108 97.3253 7.94052 
476.143 96.6331 7.93435 
476.178 95.9408 7.92818 
476.213 95.2486 7.922 
476.248 94.5564 7.91583 
476.283 93.8642 7.90966 
476.318 93.1719 7.90349 
476.353 92.4797 7.89731 
476.388 91.7875 7.89114 
476.423 91.0953 7.88497 
476.458 90.403 7.8788 
476.493 89.7108 7.87262 
476.528 89.0186 7.86645 
476.563 88.3264 7.86028 
476.598 87.6341 7.8541 
476.633 86.9419 7.84793 
476.668 86.2497 7.84176 
476.703 85.5575 7.83559 
476.738 84.8652 7.82941 
476.773 84.173 7.82324 
476.808 83.4808 7.81707 
476.843 82.7886 7.81089 
476.878 82.0963 7.80472 
476.913 81.4041 7.79855 
476.948 80.7119 7.79238 
476.983 80.0197 7.7862 
477.018 79.3274 7.78003 
477.053 78.6352 7.77386 
477.088 77.943 7.76769 
476.857 77.2158 8.72842 
476.892 76.5252 8.72226 
476.927 75.8345 8.71611 
476.962 75.1439 8.70995 
476.996 74.4533 8.70379 
477.031 73.7626 8.69763 
477.066 73.072 8.69147 
477.101 72.3814 8.68531 
477.136 71.6907 8.67915 
477.171 71.0001 8.673 
477.206 70.3095 8.66684 
477.241 69.6188 8.66068 
477.276 68.9282 8.65452 
477.043 68.2233 9.61543 
477.078 67.5342 9.60928 
477.113 66.8452 9.60314 
477.148 66.1562 9.59699 
477.183 65.4671 9.59085 
477.218 64.7781 9.5847 
477.252 64.089 9.57856 
477.287 63.4 9.57242 
477.322 62.7109 9.56627 
477.357 62.0219 9.56013 
477.392 61.3329 9.55398 
477.427 60.6438 9.54784 
477.461 59.9548 9.54169 
477.496 59.2657 9.53555 
477.531 58.5767 9.52941 
477.566 57.8876 9.52326 
477.601 57.1986 9.51712 
477.636 56.5095 9.51097 
477.67 55.8205 9.50483 
477.705 55.1315 9.49868 
477.74 54.4424 9.49254 
477.775 53.7534 9.48639 
477.81 53.0643 9.48025 
477.845 52.3753 9.4741 
477.879 51.6862 9.46796 
477.914 50.9972 9.46182 
477.949 50.3082 9.45567 
477.984 49.6191 9.44953 
478.019 48.9301 9.44338 
478.054 48.241 9.43724 
478.088 47.552 9.4311 
477.854 46.898 10.3925 
477.888 46.2106 10.3864 
477.923 45.5231 10.3802 
477.958 44.8357 10.3741 
477.993 44.1482 10.368 
478.027 43.4608 10.3618 
478.062 42.7733 10.3557 
478.097 42.0858 10.3496 
478.132 41.3984 10.3434 
478.166 40.7109 10.3373 
478.201 40.0235 10.3312 
478.236 39.336 10.3251 
478.271 38.6486 10.3189 
478.305 37.9611 10.3128 
478.34 37.2737 10.3067 
478.375 36.5862 10.3005 
478.41 35.8988 10.2944 
478.444 35.2113 10.2883 
478.479 34.5239 10.2821 
478.514 33.8364 10.276 
478.549 33.149 10.2699 
478.583 32.4615 10.2638 
478.618 31.7741 10.2576 
478.653 31.0866 10.2515 
478.688 30.3992 10.2454 
478.994 29.6369 9.27134 
479.029 28.9478 9.2652 
479.064 28.2588 9.25905 
479.099 27.5697 9.25291 
479.405 26.7995 8.27884 
479.985 25.9432 6.33679 
480.292 25.165 5.36266 
480.872 24.2976 3.42051 
475.996 112.401 3.10836 
475.771 111.588 4.06863 
475.545 110.778 5.02889 
475.581 110.081 5.02268 
475.355 109.276 5.98302 
475.39 108.581 5.97682 
475.425 107.885 5.97062 
475.46 107.19 5.96441 
475.234 106.393 6.9248 
475.269 105.699 6.91861 
475.305 105.005 6.91242 
475.34 104.311 6.90624 
475.375 103.617 6.90005 
475.41 102.924 6.89386 
475.183 102.138 7.85434 
475.218 101.445 7.84817 
475.253 100.753 7.842 
475.288 100.061 7.83582 
475.323 99.3688 7.82965 
475.358 98.6765 7.82348 
475.393 97.9843 7.81731 
475.428 97.2921 7.81113 
475.463 96.5999 7.80496 
475.498 95.9076 7.79879 
475.533 95.2154 7.79262 
475.568 94.5232 7.78644 
475.603 93.8309 7.78027 
475.638 93.1387 7.7741 
475.673 92.4465 7.76792 
475.708 91.7543 7.76175 
475.743 91.062 7.75558 
475.778 90.3698 7.74941 
475.813 89.6776 7.74323 
475.848 88.9854 7.73706 
475.883 88.2931 7.73089 
475.918 87.6009 7.72471 
475.953 86.9087 7.71854 
475.988 86.2165 7.71237 
476.023 85.5242 7.7062 
476.058 84.832 7.70002 
476.093 84.1398 7.69385 
476.128 83.4476 7.68768 
476.163 82.7553 7.6815 
476.198 82.0631 7.67533 
476.233 81.3709 7.66916 
476.268 80.6786 7.66299 
476.303 79.9864 7.65681 
476.338 79.2942 7.65064 
476.373 78.602 7.64447 
476.143 77.8733 8.60549 
476.178 77.1826 8.59933 
476.213 76.492 8.59317 
476.248 75.8014 8.58701 
476.283 75.1107 8.58085 
476.318 74.4201 8.5747 
476.353 73.7295 8.56854 
476.388 73.0388 8.56238 
476.423 72.3482 8.55622 
476.458 71.6576 8.55006 
476.492 70.9669 8.5439 
476.527 70.2763 8.53774 
476.562 69.5857 8.53159 
476.332 68.8793 9.49278 
476.366 68.1902 9.48663 
476.401 67.5012 9.48049 
476.436 66.8121 9.47434 
476.471 66.1231 9.4682 
476.506 65.434 9.46206 
476.541 64.745 9.45591 
476.575 64.0559 9.44977 
476.61 63.3669 9.44362 
476.645 62.6779 9.43748 
476.68 61.9888 9.43133 
476.715 61.2998 9.42519 
476.75 60.6107 9.41904 
476.518 59.9266 10.3805 
476.553 59.2392 10.3743 
476.587 58.5517 10.3682 
476.622 57.8642 10.3621 
476.657 57.1768 10.3559 
476.692 56.4893 10.3498 
476.726 55.8019 10.3437 
476.761 55.1144 10.3376 
476.796 54.427 10.3314 
476.831 53.7395 10.3253 
476.865 53.0521 10.3192 
476.9 52.3646 10.313 
476.935 51.6772 10.3069 
476.97 50.9897 10.3008 
477.004 50.3023 10.2946 
477.039 49.6148 10.2885 
477.074 48.9274 10.2824 
477.109 48.2399 10.2762 
477.143 47.5525 10.2701 
477.178 46.865 10.264 
477.213 46.1776 10.2579 
477.248 45.4901 10.2517 
477.282 44.8027 10.2456 
477.317 44.1152 10.2395 
477.352 43.4277 10.2333 
477.387 42.7403 10.2272 
477.421 42.0528 10.2211 
477.456 41.3654 10.2149 
477.491 40.6779 10.2088 
477.526 39.9905 10.2027 
477.56 39.303 10.1966 
477.595 38.6156 10.1904 
477.63 37.9281 10.1843 
477.665 37.2407 10.1782 
477.699 36.5532 10.172 
477.734 35.8658 10.1659 
477.769 35.1783 10.1598 
477.804 34.4909 10.1536 
477.838 33.8034 10.1475 
477.873 33.116 10.1414 
477.908 32.4285 10.1353 
477.943 31.7411 10.1291 
477.977 31.0536 10.123 
478.282 30.2928 9.14869 
478.317 29.6038 9.14254 
478.352 28.9147 9.1364 
478.387 28.2257 9.13026 
478.692 27.4569 8.15591 
478.997 26.685 7.18151 
479.303 25.9099 6.20711 
479.879 25.0471 4.26441 
480.456 24.178 2.32165 
475.567 112.482 2.01071 
475.344 111.667 2.97124 
475.12 110.856 3.93182 
474.896 110.048 4.8924 
474.931 109.351 4.88618 
474.966 108.654 4.87997 
474.742 107.852 5.84063 
474.777 107.156 5.83443 
474.812 106.461 5.82823 
474.847 105.766 5.82203 
474.623 104.972 6.78274 
474.658 104.278 6.77655 
474.693 103.584 6.77036 
474.728 102.89 6.76417 
474.763 102.197 6.75799 
474.538 101.412 7.71878 
474.573 100.72 7.71261 
474.608 100.028 7.70643 
474.643 99.3355 7.70026 
474.678 98.6433 7.69409 
474.713 97.9511 7.68792 
474.748 97.2589 7.68174 
474.783 96.5666 7.67557 
474.818 95.8744 7.6694 
474.853 95.1822 7.66323 
474.888 94.4899 7.65705 
474.923 93.7977 7.65088 
474.958 93.1055 7.64471 
474.993 92.4133 7.63853 
475.028 91.721 7.63236 
475.063 91.0288 7.62619 
475.098 90.3366 7.62002 
475.133 89.6444 7.61384 
475.168 88.9521 7.60767 
475.203 88.2599 7.6015 
475.238 87.5677 7.59532 
475.273 86.8755 7.58915 
475.308 86.1832 7.58298 
475.343 85.491 7.57681 
475.378 84.7988 7.57063 
475.413 84.1066 7.56446 
475.448 83.4143 7.55829 
475.483 82.7221 7.55212 
475.518 82.0299 7.54594 
475.553 81.3376 7.53977 
475.588 80.6454 7.5336 
475.623 79.9532 7.52742 
475.658 79.261 7.52125 
475.43 78.5308 8.48256 
475.465 77.8401 8.4764 
475.5 77.1495 8.47024 
475.535 76.4589 8.46408 
475.569 75.7682 8.45792 
475.604 75.0776 8.45176 
475.639 74.387 8.4456 
475.674 73.6963 8.43945 
475.709 73.0057 8.43329 
475.744 72.3151 8.42713 
475.779 71.6244 8.42097 
475.814 70.9338 8.41481 
475.585 70.2243 9.37627 
475.62 69.5352 9.37013 
475.655 68.8462 9.36398 
475.689 68.1571 9.35784 
475.724 67.4681 9.35169 
475.759 66.779 9.34555 
475.794 66.09 9.3394 
475.829 65.401 9.33326 
475.864 64.7119 9.32712 
475.898 64.0229 9.32097 
475.933 63.3338 9.31483 
475.968 62.6448 9.30868 
476.003 61.9557 9.30254 
475.773 61.2685 10.2642 
475.808 60.5811 10.2581 
475.842 59.8936 10.252 
475.877 59.2062 10.2458 
475.912 58.5187 10.2397 
475.947 57.8312 10.2336 
475.981 57.1438 10.2274 
476.016 56.4563 10.2213 
476.051 55.7689 10.2152 
476.086 55.0814 10.2091 
476.12 54.394 10.2029 
476.155 53.7065 10.1968 
476.19 53.0191 10.1907 
476.225 52.3316 10.1845 
476.259 51.6442 10.1784 
476.294 50.9567 10.1723 
476.329 50.2693 10.1661 
476.364 49.5818 10.16 
476.398 48.8944 10.1539 
476.433 48.2069 10.1478 
476.468 47.5195 10.1416 
476.503 46.832 10.1355 
476.537 46.1446 10.1294 
476.572 45.4571 10.1232 
476.607 44.7697 10.1171 
476.642 44.0822 10.111 
476.676 43.3948 10.1048 
476.711 42.7073 10.0987 
476.746 42.0198 10.0926 
476.781 41.3324 10.0864 
476.815 40.6449 10.0803 
476.85 39.9575 10.0742 
476.885 39.27 10.0681 
476.92 38.5826 10.0619 
476.954 37.8951 10.0558 
476.989 37.2077 10.0497 
477.024 36.5202 10.0435 
477.059 35.8328 10.0374 
477.093 35.1453 10.0313 
477.128 34.4579 10.0251 
477.163 33.7704 10.019 
477.198 33.083 10.0129 
477.232 32.3955 10.0068 
477.536 31.6378 9.03218 
477.57 30.9488 9.02604 
477.605 30.2597 9.0199 
477.64 29.5707 9.01375 
477.944 28.8051 8.03914 
477.978 28.1144 8.03298 
478.282 27.344 7.05829 
478.586 26.5704 6.08361 
478.89 25.7936 5.10889 
479.463 24.9291 3.16558 
474.913 111.746 1.87328 
474.691 110.933 2.83412 
474.469 110.124 3.79501 
474.504 109.425 3.78878 
474.281 108.62 4.74968 
474.317 107.923 4.74347 
474.094 107.123 5.70445 
474.129 106.428 5.69825 
474.164 105.732 5.69204 
474.199 105.037 5.68584 
473.976 104.245 6.64686 
474.011 103.551 6.64067 
474.046 102.857 6.63449 
474.081 102.163 6.6283 
473.858 101.379 7.58939 
473.893 100.687 7.58322 
473.928 99.9945 7.57705 
473.963 99.3023 7.57087 
473.998 98.6101 7.5647 
474.033 97.9178 7.55853 
474.068 97.2256 7.55235 
474.103 96.5334 7.54618 
474.138 95.8412 7.54001 
474.173 95.1489 7.53384 
474.208 94.4567 7.52766 
474.243 93.7645 7.52149 
474.278 93.0723 7.51532 
474.313 92.38 7.50915 
474.348 91.6878 7.50297 
474.383 90.9956 7.4968 
474.418 90.3034 7.49063 
474.453 89.6111 7.48445 
474.488 88.9189 7.47828 
474.523 88.2267 7.47211 
474.558 87.5345 7.46594 
474.593 86.8422 7.45976 
474.628 86.15 7.45359 
474.663 85.4578 7.44742 
474.698 84.7656 7.44124 
474.733 84.0733 7.43507 
474.768 83.3811 7.4289 
474.803 82.6889 7.42273 
474.838 81.9967 7.41655 
474.873 81.3044 7.41038 
474.908 80.6122 7.40421 
474.681 79.8789 8.36578 
474.716 79.1882 8.35962 
474.751 78.4976 8.35346 
474.786 77.807 8.34731 
474.821 77.1163 8.34115 
474.856 76.4257 8.33499 
474.891 75.7351 8.32883 
474.926 75.0444 8.32267 
474.961 74.3538 8.31651 
474.996 73.6632 8.31035 
475.031 72.9725 8.3042 
475.065 72.2819 8.29804 
475.1 71.5913 8.29188 
474.873 70.8802 9.25362 
474.908 70.1912 9.24748 
474.943 69.5021 9.24133 
474.978 68.8131 9.23519 
475.012 68.1241 9.22904 
475.047 67.435 9.2229 
475.082 66.746 9.21675 
475.117 66.0569 9.21061 
475.152 65.3679 9.20447 
475.187 64.6788 9.19832 
475.221 63.9898 9.19218 
475.256 63.3008 9.18603 
475.028 62.6104 10.148 
475.063 61.923 10.1419 
475.097 61.2355 10.1357 
475.132 60.5481 10.1296 
475.167 59.8606 10.1235 
475.202 59.1732 10.1173 
475.236 58.4857 10.1112 
475.271 57.7982 10.1051 
475.306 57.1108 10.0989 
475.341 56.4233 10.0928 
475.375 55.7359 10.0867 
475.41 55.0484 10.0806 
475.445 54.361 10.0744 
475.48 53.6735 10.0683 
475.514 52.9861 10.0622 
475.549 52.2986 10.056 
475.584 51.6112 10.0499 
475.619 50.9237 10.0438 
475.653 50.2363 10.0376 
475.688 49.5488 10.0315 
475.723 48.8614 10.0254 
475.758 48.1739 10.0193 
475.792 47.4865 10.0131 
475.827 46.799 10.007 
475.862 46.1116 10.0009 
475.897 45.4241 9.99473 
475.931 44.7367 9.9886 
475.966 44.0492 9.98247 
476.001 43.3618 9.97634 
476.036 42.6743 9.97021 
476.07 41.9869 9.96408 
476.105 41.2994 9.95795 
476.14 40.6119 9.95182 
476.175 39.9245 9.94569 
476.209 39.237 9.93956 
476.244 38.5496 9.93343 
476.279 37.8621 9.9273 
476.314 37.1747 9.92117 
476.348 36.4872 9.91504 
476.383 35.7998 9.90891 
476.418 35.1123 9.90278 
476.453 34.4249 9.89665 
476.487 33.7374 9.89052 
476.789 32.9828 8.91568 
476.824 32.2938 8.90953 
476.858 31.6048 8.90339 
476.893 30.9157 8.89725 
477.195 30.1532 7.92236 
477.23 29.4625 7.9162 
477.265 28.7719 7.91004 
477.567 28.003 6.93508 
477.869 27.2309 5.96011 
478.172 26.4557 4.98511 
478.742 25.5942 3.04123 
479.045 24.811 2.06614 
474.515 111.122 0.768429 
474.038 110.2 2.697 
474.074 109.499 2.69075 
473.853 108.693 3.65197 
473.888 107.994 3.64574 
473.667 107.193 4.60697 
473.702 106.496 4.60076 
473.481 105.699 5.56206 
473.516 105.003 5.55586 
473.294 104.211 6.51717 
473.33 103.518 6.51099 
473.365 102.824 6.5048 
473.4 102.13 6.49861 
473.178 101.346 7.46 
473.213 100.654 7.45383 
473.248 99.9613 7.44766 
473.283 99.2691 7.44148 
473.318 98.5768 7.43531 
473.353 97.8846 7.42914 
473.388 97.1924 7.42296 
473.423 96.5002 7.41679 
473.458 95.8079 7.41062 
473.493 95.1157 7.40445 
473.528 94.4235 7.39827 
473.563 93.7313 7.3921 
473.598 93.039 7.38593 
473.633 92.3468 7.37976 
473.668 91.6546 7.37358 
473.703 90.9624 7.36741 
473.738 90.2701 7.36124 
473.773 89.5779 7.35506 
473.808 88.8857 7.34889 
473.843 88.1935 7.34272 
473.878 87.5012 7.33655 
473.913 86.809 7.33037 
473.948 86.1168 7.3242 
473.983 85.4246 7.31803 
474.017 84.7323 7.31185 
474.052 84.0401 7.30568 
474.087 83.3479 7.29951 
474.122 82.6556 7.29334 
474.157 81.9634 7.28716 
474.192 81.2712 7.28099 
473.968 80.5364 8.24285 
474.003 79.8457 8.23669 
474.038 79.1551 8.23053 
474.073 78.4645 8.22437 
474.108 77.7738 8.21821 
474.142 77.0832 8.21205 
474.177 76.3926 8.2059 
474.212 75.7019 8.19974 
474.247 75.0113 8.19358 
474.282 74.3206 8.18742 
474.317 73.63 8.18126 
474.352 72.9394 8.1751 
474.126 72.2252 9.13711 
474.161 71.5362 9.13097 
474.196 70.8472 9.12483 
474.231 70.1581 9.11868 
474.266 69.4691 9.11254 
474.301 68.78 9.10639 
474.335 68.091 9.10025 
474.37 67.4019 9.0941 
474.405 66.7129 9.08796 
474.44 66.0239 9.08181 
474.475 65.3348 9.07567 
474.51 64.6458 9.06953 
474.544 63.9567 9.06338 
474.318 63.2649 10.0256 
474.352 62.5774 10.0195 
474.387 61.89 10.0134 
474.422 61.2025 10.0072 
474.457 60.5151 10.0011 
474.491 59.8276 9.99497 
474.526 59.1402 9.98884 
474.561 58.4527 9.98271 
474.596 57.7652 9.97658 
474.63 57.0778 9.97045 
474.403 56.4034 10.9328 
474.438 55.7176 10.9267 
474.472 55.0317 10.9206 
474.507 54.3459 10.9145 
474.542 53.66 10.9084 
474.576 52.9741 10.9022 
474.611 52.2883 10.8961 
474.908 51.5782 9.92141 
474.943 50.8907 9.91528 
474.978 50.2033 9.90915 
475.013 49.5158 9.90302 
475.047 48.8284 9.89689 
475.082 48.1409 9.89076 
475.117 47.4535 9.88463 
475.152 46.766 9.8785 
475.186 46.0786 9.87237 
475.221 45.3911 9.86624 
475.256 44.7037 9.86011 
475.291 44.0162 9.85398 
475.326 43.3288 9.84785 
475.36 42.6413 9.84171 
475.395 41.9538 9.83558 
475.43 41.2664 9.82946 
475.465 40.5789 9.82332 
475.499 39.8915 9.81719 
475.534 39.204 9.81106 
475.569 38.5166 9.80493 
475.604 37.8291 9.7988 
475.638 37.1417 9.79267 
475.673 36.4542 9.78654 
475.708 35.7668 9.78041 
476.007 35.0169 8.80532 
476.042 34.3279 8.79917 
476.077 33.6388 8.79303 
476.112 32.9498 8.78688 
476.412 32.1919 7.81175 
476.447 31.5013 7.80559 
476.482 30.8107 7.79943 
476.782 30.0465 6.8242 
476.817 29.3542 6.81803 
476.852 28.662 6.81186 
477.152 27.8914 5.83661 
477.453 27.1177 4.86133 
477.754 26.3408 3.88599 
473.86 110.385 0.630686 
473.64 109.574 1.59216 
473.421 108.766 2.55363 
473.202 107.961 3.51516 
473.237 107.262 3.50893 
473.017 106.462 4.47047 
473.053 105.765 4.46426 
472.833 104.97 5.42587 
472.868 104.275 5.41967 
472.648 103.484 6.3813 
472.683 102.79 6.37511 
472.718 102.097 6.36893 
472.498 101.313 7.33061 
472.533 100.62 7.32444 
472.568 99.9281 7.31827 
472.603 99.2358 7.31209 
472.638 98.5436 7.30592 
472.672 97.8514 7.29975 
472.707 97.1592 7.29358 
472.742 96.4669 7.2874 
472.777 95.7747 7.28123 
472.556 95.0065 8.24309 
472.591 94.3159 8.23693 
472.626 93.6253 8.23077 
472.661 92.9346 8.22461 
472.696 92.244 8.21845 
472.731 91.5534 8.21229 
472.766 90.8627 8.20613 
472.801 90.1721 8.19998 
473.092 89.5447 7.22567 
473.127 88.8524 7.2195 
473.162 88.1602 7.21333 
473.197 87.468 7.20716 
473.232 86.7758 7.20098 
473.267 86.0835 7.19481 
473.302 85.3913 7.18864 
473.337 84.6991 7.18247 
473.372 84.0069 7.17629 
473.407 83.3146 7.17012 
473.442 82.6224 7.16395 
473.477 81.9302 7.15777 
473.254 81.1938 8.11991 
473.289 80.5032 8.11376 
473.324 79.8126 8.1076 
473.359 79.1219 8.10144 
473.394 78.4313 8.09528 
473.429 77.7407 8.08912 
473.464 77.05 8.08296 
473.499 76.3594 8.0768 
473.534 75.6688 8.07065 
473.569 74.9781 8.06449 
473.604 74.2875 8.05833 
473.638 73.5969 8.05217 
473.415 72.8812 9.01446 
473.449 72.1922 9.00832 
473.484 71.5031 9.00218 
473.519 70.8141 8.99603 
473.554 70.125 8.98989 
473.589 69.436 8.98374 
473.624 68.747 8.9776 
473.658 68.0579 8.97145 
473.693 67.3689 8.96531 
473.728 66.6798 8.95916 
473.763 65.9908 8.95302 
473.798 65.3017 8.94688 
473.573 64.6068 9.90938 
473.608 63.9193 9.90325 
473.642 63.2319 9.89712 
473.677 62.5444 9.89099 
473.712 61.857 9.88486 
473.747 61.1695 9.87873 
473.781 60.4821 9.8726 
473.816 59.7946 9.86647 
473.851 59.1072 9.86034 
473.625 58.4281 10.823 
473.66 57.7422 10.8168 
473.694 57.0564 10.8107 
473.729 56.3705 10.8046 
473.764 55.6847 10.7985 
473.798 54.9988 10.7924 
473.833 54.3129 10.7863 
473.868 53.6271 10.7802 
473.902 52.9412 10.774 
473.937 52.2554 10.7679 
473.972 51.5695 10.7618 
474.006 50.8836 10.7557 
474.041 50.1978 10.7496 
474.076 49.5119 10.7435 
474.372 48.7954 9.76839 
474.407 48.1079 9.76226 
474.442 47.4205 9.75613 
474.476 46.733 9.75 
474.511 46.0456 9.74387 
474.546 45.3581 9.73774 
474.581 44.6707 9.73161 
474.615 43.9832 9.72548 
474.65 43.2958 9.71935 
474.685 42.6083 9.71322 
474.72 41.9209 9.70709 
474.754 41.2334 9.70096 
474.789 40.5459 9.69483 
474.824 39.8585 9.6887 
474.859 39.171 9.68257 
474.893 38.4836 9.67644 
474.928 37.7961 9.67031 
474.963 37.1087 9.66418 
475.261 36.3619 8.68881 
475.295 35.6729 8.68267 
475.33 34.9838 8.67652 
475.365 34.2948 8.67038 
475.4 33.6057 8.66423 
475.698 32.8494 7.68881 
475.733 32.1588 7.68265 
476.032 31.3977 6.70716 
476.067 30.7055 6.70099 
476.366 29.9396 5.72548 
476.401 29.2458 5.71929 
476.7 28.4751 4.74374 
476.735 27.7797 4.73754 
477.298 26.9243 2.79253 
473.204 109.648 0.492942 
472.986 108.838 1.45473 
472.769 108.032 2.41651 
472.804 107.332 2.41027 
472.586 106.53 3.37212 
472.368 105.732 4.33398 
472.403 105.035 4.32776 
472.185 104.241 5.28969 
472.22 103.546 5.28349 
472.001 102.757 6.24543 
472.036 102.063 6.23924 
471.817 101.279 7.20122 
471.852 100.587 7.19505 
471.887 99.8948 7.18888 
471.922 99.2026 7.1827 
471.957 98.5104 7.17653 
471.738 97.7359 8.13863 
471.773 97.0453 8.13247 
471.808 96.3547 8.12631 
471.843 95.664 8.12015 
471.878 94.9734 8.11399 
471.913 94.2828 8.10783 
471.947 93.5921 8.10168 
471.982 92.9015 8.09552 
472.017 92.2109 8.08936 
472.052 91.5202 8.0832 
472.087 90.8296 8.07704 
472.122 90.1389 8.07088 
472.157 89.4483 8.06472 
472.192 88.7577 8.05857 
472.227 88.067 8.05241 
472.262 87.3764 8.04625 
472.552 86.7425 7.07159 
472.331 85.9951 8.03393 
472.366 85.3045 8.02777 
472.401 84.6139 8.02161 
472.436 83.9232 8.01546 
472.471 83.2326 8.0093 
472.506 82.542 8.00314 
472.541 81.8513 7.99698 
472.576 81.1607 7.99082 
472.611 80.4701 7.98466 
472.646 79.7794 7.9785 
472.681 79.0888 7.97235 
472.716 78.3982 7.96619 
472.75 77.7075 7.96003 
472.785 77.0169 7.95387 
472.82 76.3262 7.94771 
472.855 75.6356 7.94155 
472.89 74.945 7.93539 
472.668 74.2262 8.89796 
472.703 73.5372 8.89181 
472.738 72.8481 8.88567 
472.772 72.1591 8.87953 
472.807 71.4701 8.87338 
472.842 70.781 8.86724 
472.877 70.092 8.86109 
472.912 69.4029 8.85495 
472.947 68.7139 8.8488 
472.981 68.0248 8.84266 
473.016 67.3358 8.83651 
473.051 66.6467 8.83037 
473.086 65.9577 8.82423 
472.863 65.2612 9.78702 
472.897 64.5738 9.78089 
472.932 63.8863 9.77476 
472.967 63.1989 9.76863 
473.002 62.5114 9.7625 
473.036 61.824 9.75637 
473.071 61.1365 9.75024 
473.106 60.4491 9.74411 
472.882 59.7669 10.707 
472.916 59.081 10.7009 
472.951 58.3952 10.6948 
472.986 57.7093 10.6886 
473.02 57.0235 10.6825 
473.055 56.3376 10.6764 
473.09 55.6517 10.6703 
473.124 54.9659 10.6642 
473.159 54.28 10.6581 
473.194 53.5942 10.652 
473.228 52.9083 10.6458 
473.263 52.2224 10.6397 
473.298 51.5366 10.6336 
473.332 50.8507 10.6275 
473.367 50.1648 10.6214 
473.402 49.479 10.6153 
473.436 48.7931 10.6091 
473.471 48.1073 10.603 
473.506 47.4214 10.5969 
473.541 46.7355 10.5908 
473.575 46.0497 10.5847 
473.61 45.3638 10.5786 
473.645 44.678 10.5724 
473.679 43.9921 10.5663 
473.975 43.2628 9.59085 
474.009 42.5753 9.58472 
474.044 41.8879 9.57859 
474.079 41.2004 9.57246 
474.114 40.5129 9.56633 
474.148 39.8255 9.5602 
474.183 39.138 9.55407 
474.218 38.4506 9.54794 
474.253 37.7631 9.54181 
474.287 37.0757 9.53568 
474.584 36.3288 8.56002 
474.618 35.6398 8.55387 
474.653 34.9507 8.54773 
474.688 34.2617 8.54158 
474.985 33.5069 7.56588 
475.02 32.8163 7.55972 
475.317 32.0567 6.58394 
475.352 31.3645 6.57777 
475.649 30.6001 5.60198 
475.946 29.8326 4.62616 
475.981 29.1372 4.61996 
476.279 28.3648 3.64407 
476.577 27.5894 2.66818 
472.332 108.103 1.31729 
472.368 107.401 1.31104 
472.151 106.598 2.27315 
471.935 105.798 3.23531 
471.718 105.001 4.19748 
471.501 104.208 5.1597 
471.537 103.513 5.1535 
471.319 102.724 6.11574 
471.355 102.03 6.10955 
471.137 101.246 7.07183 
471.172 100.554 7.06566 
471.207 99.8616 7.05949 
470.99 99.0841 8.02185 
471.024 98.3934 8.01569 
471.059 97.7028 8.00954 
471.094 97.0121 8.00338 
471.129 96.3215 7.99722 
471.164 95.6309 7.99106 
471.199 94.9402 7.9849 
471.234 94.2496 7.97874 
471.269 93.559 7.97258 
471.304 92.8683 7.96643 
471.339 92.1777 7.96027 
471.374 91.4871 7.95411 
471.409 90.7964 7.94795 
471.443 90.1058 7.94179 
471.478 89.4152 7.93563 
471.513 88.7245 7.92947 
471.548 88.0339 7.92332 
471.583 87.3433 7.91716 
471.618 86.6526 7.911 
471.653 85.962 7.90484 
471.688 85.2714 7.89868 
471.723 84.5807 7.89252 
471.758 83.8901 7.88636 
471.793 83.1994 7.88021 
471.827 82.5088 7.87405 
471.862 81.8182 7.86789 
471.897 81.1275 7.86173 
471.932 80.4369 7.85557 
471.967 79.7463 7.84941 
472.002 79.0556 7.84325 
472.037 78.365 7.8371 
472.072 77.6744 7.83094 
472.107 76.9837 7.82478 
472.142 76.2931 7.81862 
472.177 75.6025 7.81246 
471.956 74.8822 8.77531 
471.991 74.1932 8.76916 
472.026 73.5041 8.76302 
472.061 72.8151 8.75688 
472.095 72.126 8.75073 
472.13 71.437 8.74459 
472.165 70.7479 8.73844 
472.2 70.0589 8.7323 
472.235 69.3698 8.72615 
472.27 68.6808 8.72001 
472.304 67.9918 8.71386 
472.339 67.3027 8.70772 
472.118 66.6031 9.67078 
472.152 65.9157 9.66465 
472.187 65.2282 9.65852 
472.222 64.5408 9.65239 
472.257 63.8533 9.64626 
472.291 63.1659 9.64013 
472.326 62.4784 9.634 
472.361 61.791 9.62787 
472.139 61.1057 10.591 
472.173 60.4198 10.5849 
472.208 59.734 10.5788 
472.243 59.0481 10.5727 
472.277 58.3623 10.5666 
472.312 57.6764 10.5604 
472.347 56.9905 10.5543 
472.381 56.3047 10.5482 
472.416 55.6188 10.5421 
472.451 54.933 10.536 
472.485 54.2471 10.5299 
472.52 53.5612 10.5238 
472.555 52.8754 10.5176 
472.589 52.1895 10.5115 
472.624 51.5037 10.5054 
472.659 50.8178 10.4993 
472.693 50.1319 10.4932 
472.728 49.4461 10.4871 
472.763 48.7602 10.4809 
472.797 48.0743 10.4748 
472.832 47.3885 10.4687 
472.867 46.7026 10.4626 
472.901 46.0168 10.4565 
472.936 45.3309 10.4504 
472.971 44.645 10.4442 
473.005 43.9592 10.4381 
473.04 43.2733 10.432 
473.075 42.5875 10.4259 
473.109 41.9016 10.4198 
473.144 41.2157 10.4137 
473.438 40.4799 9.43783 
473.473 39.7925 9.4317 
473.508 39.105 9.42557 
473.542 38.4176 9.41944 
473.577 37.7301 9.41331 
473.612 37.0427 9.40718 
473.907 36.2958 8.43122 
473.941 35.6067 8.42508 
473.976 34.9177 8.41893 
474.271 34.1644 7.44295 
474.567 33.4079 6.4669 
474.602 32.7157 6.46073 
474.897 31.9544 5.48467 
475.193 31.19 4.50858 
475.488 30.4224 3.53244 
475.524 29.7254 3.52622 
475.82 28.953 2.55006 
471.714 106.665 1.1736 
471.499 105.864 2.13603 
471.284 105.066 3.0985 
471.069 104.271 4.06098 
470.853 103.479 5.02352 
470.638 102.691 5.98605 
470.673 101.997 5.97987 
470.457 101.213 6.94244 
470.492 100.521 6.93627 
470.276 99.7415 7.89892 
470.311 99.0509 7.89276 
470.346 98.3603 7.8866 
470.381 97.6696 7.88044 
470.416 96.979 7.87428 
470.451 96.2884 7.86813 
470.486 95.5977 7.86197 
470.52 94.9071 7.85581 
470.555 94.2165 7.84965 
470.59 93.5258 7.84349 
470.625 92.8352 7.83733 
470.66 92.1445 7.83117 
470.695 91.4539 7.82502 
470.73 90.7633 7.81886 
470.765 90.0726 7.8127 
470.8 89.382 7.80654 
470.835 88.6914 7.80038 
470.87 88.0007 7.79422 
470.905 87.3101 7.78806 
470.939 86.6195 7.78191 
470.974 85.9288 7.77575 
471.009 85.2382 7.76959 
471.044 84.5476 7.76343 
471.079 83.8569 7.75727 
471.114 83.1663 7.75111 
471.149 82.4757 7.74496 
471.184 81.785 7.7388 
471.219 81.0944 7.73264 
471.254 80.4038 7.72648 
471.289 79.7131 7.72032 
471.323 79.0225 7.71416 
471.358 78.3319 7.708 
471.393 77.6412 7.70184 
471.428 76.9506 7.69569 
471.209 76.2272 8.6588 
471.244 75.5382 8.65266 
471.279 74.8491 8.64651 
471.314 74.1601 8.64037 
471.349 73.471 8.63423 
471.384 72.782 8.62808 
471.418 72.0929 8.62194 
471.453 71.4039 8.61579 
471.488 70.7149 8.60965 
471.523 70.0258 8.6035 
471.558 69.3368 8.59736 
471.593 68.6477 8.59121 
471.627 67.9587 8.58507 
471.407 67.2576 9.54841 
471.442 66.5701 9.54228 
471.477 65.8827 9.53615 
471.512 65.1952 9.53002 
471.546 64.5078 9.52389 
471.581 63.8203 9.51776 
471.616 63.1329 9.51163 
471.651 62.4454 9.5055 
471.43 61.7586 10.4689 
471.465 61.0728 10.4628 
471.499 60.3869 10.4567 
471.534 59.7011 10.4506 
471.569 59.0152 10.4445 
471.603 58.3293 10.4384 
471.638 57.6435 10.4323 
471.673 56.9576 10.4261 
471.707 56.2718 10.42 
471.742 55.5859 10.4139 
471.777 54.9 10.4078 
471.811 54.2142 10.4017 
471.846 53.5283 10.3956 
471.881 52.8424 10.3894 
471.915 52.1566 10.3833 
471.95 51.4707 10.3772 
471.985 50.7849 10.3711 
472.019 50.099 10.365 
472.054 49.4131 10.3589 
472.089 48.7273 10.3527 
472.123 48.0414 10.3466 
472.158 47.3556 10.3405 
472.193 46.6697 10.3344 
472.227 45.9838 10.3283 
472.262 45.298 10.3222 
472.297 44.6121 10.316 
472.331 43.9263 10.3099 
472.366 43.2404 10.3038 
472.401 42.5545 10.2977 
472.435 41.8687 10.2916 
472.47 41.1828 10.2855 
472.505 40.497 10.2793 
472.539 39.8111 10.2732 
472.832 39.072 9.29708 
472.867 38.3846 9.29095 
472.902 37.6971 9.28481 
473.195 36.9517 8.30857 
473.23 36.2627 8.30243 
473.264 35.5736 8.29628 
473.558 34.8219 7.32001 
473.851 34.0669 6.34368 
474.145 33.3088 5.36736 
474.439 32.5474 4.391 
474.733 31.7829 3.41459 
475.027 31.0152 2.43817 
471.06 105.93 1.03617 
470.597 105.032 2.96793 
470.384 104.237 3.9307 
470.17 103.446 4.89353 
470.205 102.75 4.88733 
469.991 101.963 5.85018 
469.777 101.18 6.81305 
469.812 100.487 6.80688 
469.598 99.7084 7.76983 
469.632 99.0177 7.76367 
469.667 98.3271 7.75751 
469.702 97.6365 7.75135 
469.737 96.9458 7.74519 
469.772 96.2552 7.73904 
469.807 95.5646 7.73288 
469.842 94.8739 7.72672 
469.877 94.1833 7.72056 
469.912 93.4927 7.7144 
469.947 92.802 7.70824 
469.982 92.1114 7.70208 
470.016 91.4208 7.69592 
470.051 90.7301 7.68977 
470.086 90.0395 7.68361 
470.121 89.3489 7.67745 
470.156 88.6582 7.67129 
470.191 87.9676 7.66513 
470.226 87.277 7.65897 
470.261 86.5863 7.65281 
470.296 85.8957 7.64666 
470.331 85.205 7.6405 
470.366 84.5144 7.63434 
470.4 83.8238 7.62818 
470.435 83.1331 7.62202 
470.47 82.4425 7.61586 
470.505 81.7519 7.6097 
470.54 81.0612 7.60355 
470.575 80.3706 7.59739 
470.61 79.68 7.59123 
470.645 78.9893 7.58507 
470.68 78.2987 7.57891 
470.715 77.6081 7.57275 
470.498 76.8832 8.53615 
470.532 76.1941 8.53001 
470.567 75.5051 8.52386 
470.602 74.816 8.51772 
470.637 74.127 8.51157 
470.672 73.438 8.50543 
470.707 72.7489 8.49929 
470.741 72.0599 8.49314 
470.776 71.3708 8.487 
470.811 70.6818 8.48085 
470.846 69.9927 8.47471 
470.881 69.3037 8.46856 
470.915 68.6147 8.46242 
470.95 67.9256 8.45628 
470.732 67.2246 9.41992 
470.767 66.5371 9.41379 
470.801 65.8497 9.40766 
470.836 65.1622 9.40153 
470.871 64.4748 9.3954 
470.906 63.7873 9.38927 
470.94 63.0999 9.38314 
470.721 62.4116 10.3469 
470.756 61.7257 10.3407 
470.791 61.0399 10.3346 
470.825 60.354 10.3285 
470.86 59.6681 10.3224 
470.895 58.9823 10.3163 
470.929 58.2964 10.3102 
470.964 57.6105 10.304 
470.999 56.9247 10.2979 
471.033 56.2388 10.2918 
471.068 55.553 10.2857 
471.103 54.8671 10.2796 
471.137 54.1812 10.2735 
471.172 53.4954 10.2674 
471.207 52.8095 10.2612 
471.241 52.1237 10.2551 
471.276 51.4378 10.249 
471.311 50.7519 10.2429 
471.346 50.0661 10.2368 
471.38 49.3802 10.2307 
471.415 48.6944 10.2245 
471.45 48.0085 10.2184 
471.484 47.3226 10.2123 
471.519 46.6368 10.2062 
471.554 45.9509 10.2001 
471.588 45.2651 10.194 
471.623 44.5792 10.1878 
471.658 43.8933 10.1817 
471.692 43.2075 10.1756 
471.727 42.5216 10.1695 
471.762 41.8358 10.1634 
471.796 41.1499 10.1573 
471.831 40.464 10.1511 
471.866 39.7782 10.145 
471.9 39.0923 10.1389 
472.191 38.3516 9.16245 
472.226 37.6641 9.15632 
472.261 36.9767 9.15019 
472.553 36.2296 8.17363 
472.844 35.4794 7.19708 
473.136 34.7259 6.22047 
473.428 33.9693 5.24386 
473.721 33.2095 4.26722 
474.013 32.4465 3.29052 
474.305 31.6803 2.31382 
470.37 105.896 0.904998 
470.158 105.097 1.86803 
469.699 104.204 3.80042 
469.487 103.412 4.76355 
469.522 102.717 4.75735 
469.309 101.93 5.72049 
469.097 101.146 6.68366 
469.132 100.454 6.67749 
468.919 99.6752 7.64074 
468.954 98.9846 7.63458 
468.989 98.294 7.62842 
469.024 97.6033 7.62226 
469.059 96.9127 7.6161 
469.094 96.2221 7.60994 
469.128 95.5314 7.60378 
469.163 94.8408 7.59763 
469.198 94.1502 7.59147 
469.233 93.4595 7.58531 
469.268 92.7689 7.57915 
469.303 92.0782 7.57299 
469.338 91.3876 7.56683 
469.373 90.697 7.56067 
469.408 90.0063 7.55452 
469.443 89.3157 7.54836 
469.478 88.6251 7.5422 
469.512 87.9344 7.53604 
469.547 87.2438 7.52988 
469.582 86.5532 7.52372 
469.617 85.8625 7.51756 
469.652 85.1719 7.51141 
469.687 84.4813 7.50525 
469.722 83.7906 7.49909 
469.757 83.1 7.49293 
469.792 82.4094 7.48677 
469.827 81.7187 7.48061 
469.862 81.0281 7.47445 
469.896 80.3375 7.4683 
469.931 79.6468 7.46214 
469.966 78.9562 7.45598 
469.751 78.2282 8.41965 
469.786 77.5391 8.4135 
469.82 76.8501 8.40736 
469.855 76.1611 8.40121 
469.89 75.472 8.39507 
469.925 74.783 8.38893 
469.96 74.0939 8.38278 
469.995 73.4049 8.37664 
470.03 72.7158 8.37049 
470.064 72.0268 8.36435 
470.099 71.3378 8.3582 
470.134 70.6487 8.35206 
470.169 69.9597 8.34591 
470.204 69.2706 8.33977 
470.238 68.5816 8.33362 
470.022 67.879 9.29755 
470.057 67.1916 9.29142 
470.091 66.5041 9.28529 
470.126 65.8167 9.27916 
470.161 65.1292 9.27303 
470.195 64.4418 9.2669 
470.23 63.7543 9.26077 
470.265 63.0669 9.25464 
470.048 62.3787 10.2187 
470.082 61.6928 10.2125 
470.117 61.0069 10.2064 
470.152 60.3211 10.2003 
470.186 59.6352 10.1942 
470.221 58.9494 10.1881 
470.256 58.2635 10.182 
470.29 57.5776 10.1758 
470.325 56.8918 10.1697 
470.36 56.2059 10.1636 
470.394 55.52 10.1575 
470.429 54.8342 10.1514 
470.464 54.1483 10.1453 
470.498 53.4625 10.1392 
470.533 52.7766 10.133 
470.568 52.0907 10.1269 
470.602 51.4049 10.1208 
470.637 50.719 10.1147 
470.672 50.0332 10.1086 
470.706 49.3473 10.1025 
470.741 48.6614 10.0963 
470.776 47.9756 10.0902 
470.81 47.2897 10.0841 
470.845 46.6039 10.078 
470.88 45.918 10.0719 
470.914 45.2321 10.0658 
470.949 44.5463 10.0596 
470.984 43.8604 10.0535 
471.018 43.1746 10.0474 
471.053 42.4887 10.0413 
471.088 41.8028 10.0352 
471.122 41.117 10.0291 
471.157 40.4311 10.0229 
471.192 39.7452 10.0168 
471.226 39.0594 10.0107 
471.516 38.3186 9.03395 
471.551 37.6311 9.02782 
471.841 36.8856 8.05098 
471.876 36.1965 8.04484 
472.166 35.4462 7.06799 
472.456 34.6927 6.09108 
473.002 33.8715 4.14343 
473.293 33.11 3.16645 
469.47 105.063 1.73715 
469.26 104.267 2.70054 
468.803 103.379 4.63357 
468.839 102.684 4.62736 
468.628 101.897 5.59081 
468.417 101.113 6.55428 
468.452 100.421 6.5481 
468.24 99.6421 7.51164 
468.275 98.9514 7.50549 
468.31 98.2608 7.49933 
468.345 97.5702 7.49317 
468.38 96.8795 7.48701 
468.415 96.1889 7.48085 
468.45 95.4983 7.47469 
468.238 94.7321 8.43832 
468.273 94.0431 8.43217 
468.308 93.3541 8.42603 
468.342 92.665 8.41989 
468.377 91.976 8.41374 
468.412 91.2869 8.4076 
468.447 90.5979 8.40145 
468.482 89.9088 8.39531 
468.764 89.2826 7.41926 
468.799 88.5919 7.41311 
468.834 87.9013 7.40695 
468.869 87.2107 7.40079 
468.904 86.52 7.39463 
468.939 85.8294 7.38847 
468.974 85.1387 7.38231 
469.008 84.4481 7.37615 
469.043 83.7575 7.37 
469.078 83.0668 7.36384 
469.113 82.3762 7.35768 
469.148 81.6856 7.35152 
469.183 80.9949 7.34536 
468.969 80.2622 8.30929 
469.004 79.5732 8.30314 
469.039 78.8842 8.297 
469.074 78.1951 8.29085 
469.109 77.5061 8.28471 
469.143 76.817 8.27856 
469.178 76.128 8.27242 
469.213 75.4389 8.26627 
469.248 74.7499 8.26013 
469.283 74.0609 8.25399 
469.318 73.3718 8.24784 
469.352 72.6828 8.2417 
469.387 71.9937 8.23555 
469.422 71.3047 8.22941 
469.457 70.6156 8.22326 
469.492 69.9266 8.21712 
469.527 69.2375 8.21098 
469.561 68.5485 8.20483 
469.346 67.846 9.16905 
469.381 67.1586 9.16292 
469.416 66.4711 9.15679 
469.451 65.7837 9.15066 
469.485 65.0962 9.14453 
469.52 64.4088 9.1384 
469.555 63.7213 9.13227 
469.339 63.0316 10.0966 
469.374 62.3457 10.0905 
469.408 61.6599 10.0843 
469.443 60.974 10.0782 
469.478 60.2882 10.0721 
469.512 59.6023 10.066 
469.547 58.9164 10.0599 
469.582 58.2306 10.0538 
469.616 57.5447 10.0477 
