ply
format ascii 1.0
comment FreeCAD generated
element vertex 1803
property float x
property float y
property float z
end_header
-3.35501 -0.286003 8.65506 
-3.32101 -0.973396 8.64893 
-3.28601 -1.66090 8.64280 
-3.25101 -2.34830 8.63667 
-3.21600 -3.03580 8.63054 
-3.18201 -3.72320 8.62441 
-3.14700 -4.41070 8.61828 
-3.35699 -5.10010 9.58378 
-3.32199 -5.78600 9.57766 
-3.28699 -6.47180 9.57155 
-3.25299 -7.15770 9.56543 
-3.21799 -7.84350 9.55932 
-3.18301 -8.52940 9.55320 
-3.14899 -9.21530 9.54708 
-3.35901 -9.89200 10.5127 
-3.32401 -10.5762 10.5066 
-3.29001 -11.2605 10.5005 
-3.25500 -11.9448 10.4944 
-3.22000 -12.6290 10.4883 
-3.18600 -13.3133 10.4822 
-3.15100 -13.9976 10.4761 
-3.11700 -14.6818 10.4700 
-3.08200 -15.3661 10.4639 
-3.04700 -16.0504 10.4578 
-3.01300 -16.7347 10.4517 
-2.97800 -17.4189 10.4456 
-2.94400 -18.1032 10.4395 
-2.90900 -18.7875 10.4334 
-2.87399 -19.4717 10.4273 
-2.84000 -20.1560 10.4212 
-2.80499 -20.8403 10.4151 
-2.77100 -21.5245 10.4090 
-2.73599 -22.2088 10.4029 
-2.70200 -22.8931 10.3968 
-2.66699 -23.5773 10.3907 
-2.63199 -24.2616 10.3846 
-2.59799 -24.9459 10.3785 
-2.56299 -25.6302 10.3724 
-2.52899 -26.3144 10.3663 
-2.49399 -26.9987 10.3602 
-2.45901 -27.6830 10.3541 
-2.42499 -28.3672 10.3480 
-2.39001 -29.0515 10.3419 
-2.10800 -29.7911 9.36360 
-2.07401 -30.4769 9.35749 
-1.54401 -31.2798 7.40701 
-1.26199 -32.0289 6.42868 
-0.731995 -32.8429 4.47811 
-3.93399 36.1950 1.07652 
-4.37500 35.3060 3.01251 
-4.81601 34.4240 4.94856 
-5.01901 33.6390 5.91350 
-4.98401 32.9470 5.90733 
-5.18701 32.1670 6.87234 
-5.15302 31.4763 6.86618 
-5.11801 30.7857 6.86002 
-5.32101 30.0120 7.82507 
-5.28699 29.3229 7.81892 
-5.25201 28.6339 7.81278 
-5.21701 27.9449 7.80663 
-5.18201 27.2558 7.80049 
-5.14700 26.5668 7.79434 
-5.11200 25.8777 7.78820 
-5.07800 25.1887 7.78206 
-5.04300 24.4996 7.77591 
-5.00800 23.8106 7.76977 
-4.97299 23.1216 7.76362 
-4.93799 22.4325 7.75748 
-4.90302 21.7435 7.75133 
-4.86899 21.0544 7.74519 
-4.83401 20.3654 7.73905 
-4.79901 19.6763 7.73290 
-4.76401 18.9873 7.72676 
-4.72900 18.2983 7.72061 
-4.69400 17.6092 7.71447 
-4.66000 16.9202 7.70832 
-4.62500 16.2311 7.70218 
-4.59000 15.5421 7.69603 
-4.55499 14.8530 7.68989 
-4.51999 14.1640 7.68375 
-4.48499 13.4750 7.67760 
-4.45099 12.7859 7.67146 
-4.41599 12.0969 7.66531 
-4.38101 11.4078 7.65917 
-4.34601 10.7188 7.65302 
-4.31100 10.0297 7.64688 
-4.27600 9.34070 7.64073 
-4.24200 8.65160 7.63459 
-4.20700 7.96260 7.62845 
-4.17200 7.27360 7.62230 
-4.13699 6.58450 7.61616 
-4.10199 5.89550 7.61001 
-4.06699 5.20640 7.60387 
-4.03299 4.51740 7.59772 
-3.99799 3.82830 7.59158 
-3.96301 3.13930 7.58544 
-3.92801 2.45030 7.57929 
-3.89301 1.76120 7.57315 
-3.85800 1.07220 7.56700 
-3.82401 0.383102 7.56086 
-4.03101 -0.319000 8.52657 
-3.99600 -1.00640 8.52044 
-3.96100 -1.69390 8.51431 
-3.92700 -2.38130 8.50818 
-3.89200 -3.06880 8.50205 
-3.85699 -3.75620 8.49592 
-4.06500 -4.44720 9.46170 
-4.03000 -5.13300 9.45558 
-3.99600 -5.81890 9.44946 
-3.96100 -6.50470 9.44335 
-3.92599 -7.19060 9.43723 
-3.89200 -7.87650 9.43112 
-3.85699 -8.56230 9.42500 
-4.06601 -9.24050 10.3909 
-4.03101 -9.92480 10.3848 
-3.99600 -10.6091 10.3787 
-3.96201 -11.2933 10.3726 
-3.92700 -11.9776 10.3665 
-3.89301 -12.6619 10.3604 
-3.85800 -13.3461 10.3543 
-3.82401 -14.0304 10.3482 
-3.78900 -14.7147 10.3421 
-3.75400 -15.3990 10.3360 
-3.72000 -16.0832 10.3299 
-3.68500 -16.7675 10.3238 
-3.65100 -17.4518 10.3177 
-3.61600 -18.1360 10.3116 
-3.58099 -18.8203 10.3055 
-3.54700 -19.5046 10.2994 
-3.51199 -20.1888 10.2933 
-3.47800 -20.8731 10.2872 
-3.44299 -21.5574 10.2811 
-3.40799 -22.2417 10.2750 
-3.37399 -22.9259 10.2689 
-3.33899 -23.6102 10.2628 
-3.30499 -24.2945 10.2567 
-3.26999 -24.9787 10.2506 
-3.23599 -25.6630 10.2445 
-3.20099 -26.3473 10.2384 
-3.16599 -27.0315 10.2323 
-3.13199 -27.7158 10.2262 
-3.09698 -28.4001 10.2201 
-3.06299 -29.0844 10.2140 
-2.78201 -29.8240 9.23540 
-2.74799 -30.5099 9.22929 
-2.22101 -31.3129 7.27821 
-1.69501 -32.1222 5.32709 
-1.16800 -32.9380 3.37593 
-5.06000 35.2730 2.88223 
-5.49799 34.3910 4.81887 
-5.69901 33.6060 5.78411 
-5.66400 32.9140 5.77794 
-5.86600 32.1340 6.74325 
-5.83099 31.4432 6.73709 
-6.03299 30.6680 7.70242 
-5.99799 29.9789 7.69627 
-5.96399 29.2899 7.69013 
-5.92899 28.6008 7.68398 
-5.89401 27.9118 7.67784 
-5.85901 27.2227 7.67169 
-5.82401 26.5337 7.66555 
-5.78900 25.8447 7.65941 
-5.75500 25.1556 7.65326 
-5.72000 24.4666 7.64712 
-5.68500 23.7775 7.64097 
-5.64999 23.0885 7.63483 
-5.61499 22.3994 7.62868 
-5.57999 21.7104 7.62254 
-5.54599 21.0214 7.61639 
-5.51099 20.3323 7.61025 
-5.47601 19.6433 7.60411 
-5.44101 18.9542 7.59796 
-5.40601 18.2652 7.59182 
-5.37100 17.5761 7.58567 
-5.33701 16.8871 7.57953 
-5.30200 16.1981 7.57338 
-5.26700 15.5090 7.56724 
-5.23199 14.8200 7.56110 
-5.19699 14.1309 7.55495 
-5.16199 13.4419 7.54881 
-5.12799 12.7528 7.54266 
-5.09299 12.0638 7.53652 
-5.05801 11.3747 7.53037 
-5.26199 10.6473 8.49615 
-5.22800 9.95980 8.49002 
-5.19299 9.27240 8.48389 
-5.15799 8.58490 8.47776 
-5.12299 7.89750 8.47163 
-4.84900 7.24050 7.49351 
-4.81400 6.55140 7.48736 
-4.77899 5.86240 7.48122 
-4.74399 5.17340 7.47507 
-4.70999 4.48430 7.46893 
-4.67499 3.79530 7.46279 
-4.64001 3.10620 7.45664 
-4.60501 2.41720 7.45050 
-4.57001 1.72810 7.44435 
-4.77600 1.02300 8.41033 
-4.74100 0.335503 8.40420 
-4.70599 -0.351997 8.39807 
-4.67200 -1.03940 8.39194 
-4.63699 -1.72690 8.38581 
-4.60199 -2.41430 8.37968 
-4.56699 -3.10180 8.37355 
-4.53299 -3.78920 8.36742 
-4.73901 -4.48010 9.33350 
-4.70401 -5.16590 9.32738 
-4.67001 -5.85180 9.32127 
-4.63501 -6.53770 9.31515 
-4.60001 -7.22350 9.30903 
-4.56601 -7.90940 9.30292 
-4.53101 -8.59520 9.29680 
-4.73801 -9.27340 10.2630 
-4.70300 -9.95770 10.2569 
-4.66901 -10.6419 10.2508 
-4.63400 -11.3262 10.2447 
-4.60001 -12.0105 10.2386 
-4.56500 -12.6947 10.2325 
-4.53000 -13.3790 10.2264 
-4.49600 -14.0633 10.2203 
-4.46100 -14.7475 10.2142 
-4.42700 -15.4318 10.2081 
-4.39200 -16.1161 10.2020 
-4.35800 -16.8003 10.1959 
-4.32300 -17.4846 10.1898 
-4.28799 -18.1689 10.1837 
-4.25400 -18.8532 10.1776 
-4.21899 -19.5374 10.1715 
-4.18500 -20.2217 10.1654 
-4.14999 -20.9060 10.1593 
-4.11499 -21.5902 10.1532 
-4.08099 -22.2745 10.1471 
-4.04599 -22.9588 10.1410 
-4.01199 -23.6430 10.1349 
-3.97699 -24.3273 10.1288 
-3.94199 -25.0116 10.1227 
-3.90799 -25.6958 10.1166 
-3.87299 -26.3801 10.1105 
-3.83899 -27.0644 10.1044 
-3.80399 -27.7487 10.0983 
-3.76999 -28.4329 10.0922 
-3.73499 -29.1172 10.0861 
-3.45599 -29.8569 9.10720 
-3.42200 -30.5428 9.10109 
-2.89801 -31.3459 7.14942 
-2.37500 -32.1555 5.19770 
-1.85101 -32.9714 3.24594 
-5.74399 35.2390 2.75195 
-6.17899 34.3570 4.68918 
-6.37900 33.5730 5.65472 
-6.57999 32.7910 6.62032 
-6.54501 32.1010 6.61416 
-6.51001 31.4100 6.60800 
-6.70999 30.6349 7.57362 
-6.67499 29.9458 7.56748 
-6.64099 29.2568 7.56133 
-6.60599 28.5678 7.55519 
-6.57101 27.8787 7.54904 
-6.53601 27.1897 7.54290 
-6.50101 26.5006 7.53676 
-6.46600 25.8116 7.53061 
-6.66800 25.0508 8.49639 
-6.63300 24.3633 8.49026 
-6.59799 23.6759 8.48413 
-6.56299 22.9884 8.47800 
-6.52899 22.3010 8.47187 
-6.49399 21.6135 8.46574 
-6.45901 20.9261 8.45961 
-6.42401 20.2386 8.45348 
-6.39001 19.5512 8.44735 
-6.35501 18.8637 8.44122 
-6.32001 18.1763 8.43509 
-6.28500 17.4888 8.42896 
-6.25101 16.8013 8.42283 
-6.21600 16.1139 8.41670 
-6.18100 15.4264 8.41057 
-6.14600 14.7390 8.40444 
-6.11200 14.0515 8.39831 
-6.07700 13.3641 8.39218 
-6.04199 12.6766 8.38605 
-6.00699 11.9892 8.37992 
-5.97299 11.3017 8.37379 
-5.93799 10.6143 8.36766 
-5.90302 9.92680 8.36153 
-5.86801 9.23940 8.35540 
-5.83401 8.55190 8.34927 
-5.79901 7.86450 8.34314 
-5.76401 7.17700 8.33700 
-5.72900 6.48960 8.33088 
-5.69501 5.80210 8.32475 
-5.66000 5.11470 8.31861 
-5.62500 4.42720 8.31248 
-5.59000 3.73980 8.30635 
-5.55600 3.05230 8.30022 
-5.52100 2.36490 8.29409 
-5.48599 1.67740 8.28796 
-5.45099 0.989998 8.28183 
-5.41699 0.302498 8.27570 
-5.38199 -0.385002 8.26957 
-5.34698 -1.07240 8.26344 
-5.31201 -1.75990 8.25731 
-5.27802 -2.44730 8.25118 
-5.24301 -3.13480 8.24505 
-5.44800 -3.82710 9.21141 
-5.41299 -4.51300 9.20530 
-5.37799 -5.19890 9.19918 
-5.34399 -5.88470 9.19306 
-5.30899 -6.57060 9.18695 
-5.27399 -7.25640 9.18083 
-5.23999 -7.94230 9.17472 
-5.44501 -8.62200 10.1412 
-5.41000 -9.30620 10.1351 
-5.37601 -9.99050 10.1290 
-5.34100 -10.6748 10.1229 
-5.30701 -11.3590 10.1168 
-5.27200 -12.0433 10.1107 
-5.23700 -12.7276 10.1046 
-5.20300 -13.4118 10.0985 
-5.16800 -14.0961 10.0924 
-5.13400 -14.7804 10.0863 
-5.09900 -15.4647 10.0802 
-5.06400 -16.1489 10.0741 
-5.03000 -16.8332 10.0680 
-4.99500 -17.5175 10.0619 
-4.96100 -18.2017 10.0558 
-4.92599 -18.8860 10.0497 
-4.89099 -19.5703 10.0436 
-4.85699 -20.2545 10.0375 
-4.82199 -20.9388 10.0314 
-4.78799 -21.6231 10.0253 
-4.75299 -22.3073 10.0192 
-4.71899 -22.9916 10.0131 
-4.68399 -23.6759 10.0070 
-4.64899 -24.3602 10.0009 
-4.61499 -25.0444 9.99478 
-4.57999 -25.7287 9.98867 
-4.54599 -26.4130 9.98257 
-4.51099 -27.0972 9.97647 
-4.47601 -27.7815 9.97037 
-4.44199 -28.4658 9.96427 
-4.40701 -29.1500 9.95817 
-4.13000 -29.8899 8.97900 
-4.09500 -30.5757 8.97289 
-3.57501 -31.3790 7.02063 
-3.05499 -32.1887 5.06831 
-2.53400 -33.0047 3.11596 
-6.42899 35.2060 2.62167 
-6.86099 34.3240 4.55950 
-7.05899 33.5400 5.52533 
-7.25800 32.7580 6.49122 
-7.22299 32.0670 6.48507 
-7.18799 31.3769 6.47891 
-7.38699 30.6018 7.44483 
-7.35199 29.9128 7.43868 
-7.31799 29.2237 7.43254 
-7.28299 28.5347 7.42639 
-7.24799 27.8456 7.42025 
-7.21301 27.1566 7.41411 
-7.17801 26.4676 7.40796 
-7.14301 25.7785 7.40182 
-7.34299 25.0178 8.36789 
-7.30801 24.3303 8.36176 
-7.27399 23.6429 8.35563 
-7.23901 22.9554 8.34950 
-7.20401 22.2680 8.34337 
-7.16901 21.5805 8.33724 
-7.13501 20.8931 8.33111 
-7.10001 20.2056 8.32498 
-7.06500 19.5182 8.31885 
-7.03000 18.8307 8.31272 
-6.99600 18.1433 8.30659 
-6.96100 17.4558 8.30046 
-6.92599 16.7683 8.29433 
-6.89099 16.0809 8.28820 
-6.85699 15.3934 8.28207 
-6.82199 14.7060 8.27594 
-6.78699 14.0185 8.26981 
-6.75201 13.3311 8.26368 
-6.71799 12.6436 8.25755 
-6.68301 11.9562 8.25142 
-6.64801 11.2687 8.24529 
-6.61301 10.5813 8.23916 
-6.57901 9.89380 8.23303 
-6.54401 9.20640 8.22690 
-6.50900 8.51890 8.22077 
-6.47400 7.83150 8.21464 
-6.44000 7.14400 8.20851 
-6.40500 6.45660 8.20238 
-6.37000 5.76910 8.19625 
-6.33499 5.08170 8.19012 
-6.30099 4.39420 8.18399 
-6.26599 3.70680 8.17786 
-6.23099 3.01930 8.17173 
-6.19601 2.33190 8.16560 
-6.16199 1.64440 8.15947 
-6.12701 0.957001 8.15334 
-6.09201 0.269501 8.14721 
-6.05701 -0.417999 8.14108 
-6.02301 -1.10540 8.13494 
-5.98801 -1.79290 8.12882 
-5.95300 -2.48030 8.12269 
-5.91800 -3.16780 8.11656 
-6.12100 -3.86010 9.08321 
-6.08701 -4.54590 9.07710 
-6.05200 -5.23180 9.07098 
-6.01700 -5.91760 9.06487 
-5.98300 -6.60350 9.05875 
-5.94800 -7.28940 9.05263 
-6.15201 -7.97050 10.0194 
-6.11700 -8.65480 10.0133 
-6.08301 -9.33910 10.0072 
-6.04800 -10.0233 10.0011 
-6.01300 -10.7076 9.99501 
-5.97900 -11.3919 9.98891 
-5.94400 -12.0761 9.98281 
-5.91000 -12.7604 9.97671 
-5.87500 -13.4447 9.97060 
-5.84100 -14.1290 9.96450 
-5.80600 -14.8132 9.95840 
-5.77100 -15.4975 9.95230 
-5.73700 -16.1818 9.94620 
-5.70200 -16.8660 9.94009 
-5.66800 -17.5503 9.93399 
-5.63300 -18.2346 9.92789 
-5.59799 -18.9188 9.92179 
-5.56400 -19.6031 9.91569 
-5.52899 -20.2874 9.90959 
-5.49500 -20.9717 9.90349 
-5.45999 -21.6559 9.89738 
-5.42499 -22.3402 9.89128 
-5.39099 -23.0245 9.88518 
-5.35599 -23.7087 9.87908 
-5.32199 -24.3930 9.87298 
-5.28699 -25.0773 9.86687 
-5.25201 -25.7615 9.86077 
-5.21799 -26.4458 9.85467 
-5.18301 -27.1301 9.84857 
-5.14899 -27.8144 9.84247 
-5.11401 -28.4986 9.83636 
-5.07999 -29.1829 9.83026 
-4.80399 -29.9228 8.85080 
-4.76901 -30.6086 8.84469 
-4.25201 -31.4121 6.89183 
-3.73499 -32.2219 4.93892 
-3.21799 -33.0381 2.98598 
-7.11401 35.1720 2.49139 
-7.77499 34.1990 5.40212 
-7.73999 33.5060 5.39594 
-7.93701 32.7250 6.36213 
-7.90201 32.0340 6.35597 
-7.86700 31.3437 6.34981 
-8.06400 30.5687 7.31603 
-8.02899 29.8797 7.30989 
-7.99500 29.1907 7.30374 
-7.95999 28.5016 7.29760 
-7.92499 27.8126 7.29146 
-7.89001 27.1235 7.28531 
-7.85501 26.4345 7.27917 
-8.05301 25.6722 8.24553 
-8.01901 24.9848 8.23940 
-7.98401 24.2973 8.23327 
-7.94901 23.6099 8.22714 
-7.91400 22.9224 8.22101 
-7.88000 22.2350 8.21488 
-7.84500 21.5475 8.20875 
-7.81000 20.8601 8.20261 
-7.77499 20.1726 8.19649 
-7.74100 19.4852 8.19036 
-7.70599 18.7977 8.18422 
-7.67099 18.1103 8.17809 
-7.63599 17.4228 8.17196 
-7.60199 16.7354 8.16583 
-7.56699 16.0479 8.15970 
-7.53201 15.3605 8.15357 
-7.49701 14.6730 8.14744 
-7.46301 13.9855 8.14131 
-7.42801 13.2981 8.13518 
-7.39301 12.6106 8.12905 
-7.35800 11.9232 8.12292 
-7.32401 11.2357 8.11679 
-7.28900 10.5483 8.11066 
-7.25400 9.86080 8.10453 
-7.21899 9.17340 8.09840 
-7.18500 8.48590 8.09227 
-7.14999 7.79850 8.08614 
-7.11499 7.11100 8.08001 
-7.07999 6.42360 8.07388 
-7.04599 5.73610 8.06775 
-7.01099 5.04870 8.06162 
-6.97601 4.36120 8.05549 
-6.94101 3.67380 8.04936 
-6.90701 2.98630 8.04323 
-6.87201 2.29890 8.03710 
-6.83701 1.61140 8.03097 
-6.80200 0.924004 8.02484 
-6.76801 0.236504 8.01871 
-6.73300 -0.450996 8.01258 
-6.69800 -1.13840 8.00645 
-6.66299 -1.82590 8.00032 
-6.62900 -2.51330 7.99419 
-6.82999 -3.20710 8.96113 
-6.79501 -3.89300 8.95501 
-6.76099 -4.57880 8.94890 
-6.72601 -5.26470 8.94278 
-6.69101 -5.95060 8.93667 
-6.65701 -6.63640 8.93055 
-6.62201 -7.32230 8.92443 
-6.82401 -8.00340 9.89152 
-6.79001 -8.68760 9.88542 
-6.75500 -9.37190 9.87931 
-6.72000 -10.0562 9.87321 
-6.68600 -10.7405 9.86711 
-6.65100 -11.4247 9.86101 
-6.61700 -12.1090 9.85491 
-6.58200 -12.7933 9.84880 
-6.54700 -13.4775 9.84270 
-6.51300 -14.1618 9.83660 
-6.47800 -14.8461 9.83050 
-6.44400 -15.5303 9.82440 
-6.40900 -16.2146 9.81830 
-6.37399 -16.8989 9.81219 
-6.34000 -17.5832 9.80609 
-6.30499 -18.2674 9.79999 
-6.27100 -18.9517 9.79389 
-6.23599 -19.6360 9.78779 
-6.20200 -20.3202 9.78168 
-6.16699 -21.0045 9.77558 
-6.13199 -21.6888 9.76948 
-6.09799 -22.3730 9.76338 
-6.06299 -23.0573 9.75728 
-6.02899 -23.7416 9.75118 
-5.99399 -24.4258 9.74507 
-5.95901 -25.1101 9.73897 
-5.92499 -25.7944 9.73287 
-5.89001 -26.4787 9.72677 
-5.85599 -27.1629 9.72067 
-5.82101 -27.8472 9.71456 
-5.78601 -28.5315 9.70846 
-5.75201 -29.2157 9.70236 
-5.71701 -29.9000 9.69626 
-5.44299 -30.6416 8.71649 
-4.92899 -31.4452 6.76304 
-4.41501 -32.2551 4.80953 
-3.90100 -33.0715 2.85599 
-7.79901 35.1390 2.36110 
-8.45499 34.1650 5.27273 
-8.42001 33.4730 5.26655 
-8.61499 32.6920 6.23304 
-8.57999 32.0010 6.22688 
-8.77600 31.2247 7.19338 
-8.74100 30.5357 7.18724 
-8.70599 29.8466 7.18109 
-8.67200 29.1576 7.17495 
-8.63699 28.4685 7.16881 
-8.60199 27.7795 7.16266 
-8.56699 27.0904 7.15652 
-8.53201 26.4014 7.15037 
-8.72900 25.6392 8.11703 
-8.69400 24.9518 8.11090 
-8.65900 24.2643 8.10477 
-8.62500 23.5769 8.09864 
-8.59000 22.8894 8.09251 
-8.55499 22.2020 8.08638 
-8.51999 21.5145 8.08025 
-8.48599 20.8271 8.07412 
-8.45099 20.1396 8.06799 
-8.41599 19.4522 8.06186 
-8.38101 18.7647 8.05573 
-8.34601 18.0773 8.04960 
-8.31201 17.3898 8.04347 
-8.27701 16.7023 8.03734 
-8.24200 16.0149 8.03121 
-8.20700 15.3275 8.02508 
-8.17300 14.6400 8.01895 
-8.13800 13.9525 8.01282 
-8.10300 13.2651 8.00669 
-8.06900 12.5776 8.00056 
-8.03400 11.8902 7.99443 
-7.99899 11.2027 7.98830 
-7.96399 10.5153 7.98216 
-7.92999 9.82780 7.97603 
-7.89499 9.14040 7.96990 
-7.85999 8.45290 7.96377 
-7.82501 7.76550 7.95764 
-7.79001 7.07800 7.95151 
-7.75601 6.39060 7.94538 
-7.72101 5.70310 7.93925 
-7.68600 5.01570 7.93312 
-7.65100 4.32820 7.92699 
-7.61700 3.64080 7.92086 
-7.58200 2.95330 7.91473 
-7.54700 2.26590 7.90860 
-7.51199 1.57840 7.90247 
-7.47800 0.890999 7.89634 
-7.44299 0.203499 7.89021 
-7.40799 -0.483902 7.88408 
-7.37299 -1.17140 7.87795 
-7.33899 -1.85890 7.87182 
-7.53900 -2.55420 8.83905 
-7.50400 -3.24000 8.83293 
-7.46899 -3.92590 8.82681 
-7.43500 -4.61180 8.82070 
-7.39999 -5.29760 8.81458 
-7.36499 -5.98350 8.80847 
-7.33099 -6.66940 8.80235 
-7.53101 -7.35200 9.76972 
-7.49600 -8.03620 9.76362 
-7.46201 -8.72050 9.75751 
-7.42700 -9.40480 9.75141 
-7.39301 -10.0890 9.74531 
-7.35800 -10.7733 9.73921 
-7.32401 -11.4576 9.73311 
-7.28900 -12.1418 9.72700 
-7.25400 -12.8261 9.72090 
-7.22000 -13.5104 9.71480 
-7.18500 -14.1947 9.70870 
-7.15100 -14.8789 9.70260 
-7.11600 -15.5632 9.69650 
-7.08099 -16.2475 9.69039 
-7.04700 -16.9317 9.68429 
-7.01199 -17.6160 9.67819 
-7.21399 -18.2715 10.6458 
-7.17999 -18.9542 10.6397 
-7.14499 -19.6369 10.6336 
-7.11099 -20.3196 10.6275 
-7.07599 -21.0023 10.6214 
-7.04199 -21.6849 10.6153 
-7.00699 -22.3676 10.6092 
-6.97299 -23.0503 10.6032 
-6.93799 -23.7330 10.5971 
-6.90399 -24.4157 10.5910 
-6.86899 -25.0983 10.5849 
-6.83401 -25.7810 10.5788 
-6.79999 -26.4637 10.5727 
-6.52802 -27.1958 9.59276 
-6.49301 -27.8800 9.58666 
-6.45901 -28.5643 9.58056 
-6.42401 -29.2486 9.57446 
-6.39001 -29.9328 9.56836 
-6.11700 -30.6745 8.58829 
-5.60599 -31.4782 6.63424 
-5.09500 -32.2884 4.68014 
-4.58401 -33.1049 2.72601 
-8.48401 35.1060 2.23082 
-8.90601 34.2240 4.17044 
-9.10001 33.4400 5.13716 
-9.29401 32.6590 6.10395 
-9.25900 31.9680 6.09779 
-9.22400 31.2774 6.09163 
-9.41800 30.5026 7.05844 
-9.38300 29.8135 7.05230 
-9.34900 29.1245 7.04615 
-9.31400 28.4355 7.04001 
-9.27899 27.7464 7.03387 
-9.24399 27.0574 7.02772 
-9.20901 26.3683 7.02158 
-9.40399 25.6062 7.98853 
-9.36899 24.9188 7.98240 
-9.33499 24.2313 7.97627 
-9.29999 23.5439 7.97014 
-9.26501 22.8564 7.96401 
-9.23001 22.1690 7.95788 
-9.19601 21.4815 7.95175 
-9.16101 20.7941 7.94562 
-9.12601 20.1066 7.93949 
-9.09100 19.4192 7.93336 
-9.05701 18.7317 7.92723 
-9.02200 18.0443 7.92110 
-8.98700 17.3568 7.91497 
-8.95200 16.6693 7.90884 
-8.91800 15.9819 7.90271 
-8.88300 15.2944 7.89658 
-8.84799 14.6070 7.89045 
-8.81299 13.9195 7.88432 
-8.77899 13.2321 7.87819 
-8.74399 12.5446 7.87206 
-8.70901 11.8572 7.86593 
-8.67401 11.1697 7.85980 
-8.64001 10.4823 7.85367 
-8.60501 9.79480 7.84754 
-8.57001 9.10740 7.84141 
-8.53500 8.41990 7.83528 
-8.50101 7.73250 7.82915 
-8.46600 7.04500 7.82302 
-8.43100 6.35760 7.81689 
-8.39600 5.67010 7.81076 
-8.36200 4.98270 7.80463 
-8.32700 4.29520 7.79850 
-8.29199 3.60780 7.79237 
-8.25699 2.92030 7.78624 
-8.22299 2.23290 7.78011 
-8.18799 1.54540 7.77397 
-8.15302 0.858002 7.76785 
-8.11801 0.170502 7.76171 
-8.08401 -0.516899 7.75558 
-8.28201 -1.21540 8.72308 
-8.24701 -1.90130 8.71696 
-8.21201 -2.58710 8.71085 
-8.17801 -3.27300 8.70473 
-8.14301 -3.95880 8.69861 
-8.10800 -4.64470 8.69250 
-8.07401 -5.33060 8.68638 
-8.03900 -6.01640 8.68027 
-8.23801 -6.70050 9.64792 
-8.20300 -7.38480 9.64182 
-8.16901 -8.06910 9.63571 
-8.13400 -8.75330 9.62961 
-8.10001 -9.43760 9.62351 
-8.06500 -10.1219 9.61741 
-8.03000 -10.8062 9.61131 
-7.99600 -11.4904 9.60520 
-7.96100 -12.1747 9.59910 
-7.92700 -12.8590 9.59300 
-7.89200 -13.5432 9.58690 
-7.85800 -14.2275 9.58080 
-8.05701 -14.8909 10.5486 
-8.02301 -15.5736 10.5425 
-7.98801 -16.2563 10.5364 
-7.95401 -16.9390 10.5303 
-7.91901 -17.6216 10.5243 
-7.88501 -18.3043 10.5182 
-7.85001 -18.9870 10.5121 
-7.81601 -19.6697 10.5060 
-7.78101 -20.3524 10.4999 
-7.74701 -21.0350 10.4938 
-7.71201 -21.7177 10.4877 
-7.67801 -22.4004 10.4816 
-7.64301 -23.0831 10.4756 
-7.60901 -23.7657 10.4695 
-7.57401 -24.4484 10.4634 
-7.54001 -25.1311 10.4573 
-7.50500 -25.8138 10.4512 
-7.47101 -26.4965 10.4451 
-7.43600 -27.1791 10.4390 
-7.16599 -27.9129 9.45876 
-7.13101 -28.5972 9.45266 
-7.09601 -29.2814 9.44656 
-7.06201 -29.9657 9.44045 
-6.79099 -30.7074 8.46009 
-6.28299 -31.5113 6.50545 
-5.77600 -32.3216 4.55075 
-5.26700 -33.1383 2.59602 
-8.94101 35.1660 1.12736 
-9.58801 34.1910 4.04075 
-9.78000 33.4070 5.00777 
-9.74500 32.7140 5.00160 
-9.93799 31.9349 5.96870 
-9.90302 31.2443 5.96254 
-10.0950 30.4695 6.92965 
-10.0600 29.7805 6.92350 
-10.0260 29.0914 6.91736 
-9.99100 28.4024 6.91122 
-9.95599 27.7133 6.90507 
-9.92099 27.0243 6.89893 
-9.88599 26.3353 6.89278 
-10.0800 25.5732 7.86004 
-10.0450 24.8858 7.85390 
-10.0100 24.1983 7.84777 
-9.97501 23.5109 7.84164 
-9.94101 22.8234 7.83552 
-9.90601 22.1360 7.82938 
-9.87100 21.4485 7.82325 
-9.83600 20.7611 7.81712 
-9.80200 20.0736 7.81099 
-9.76700 19.3862 7.80486 
-9.73199 18.6987 7.79873 
-9.69699 18.0113 7.79260 
-9.66299 17.3238 7.78647 
-9.62799 16.6364 7.78034 
-9.59299 15.9489 7.77421 
-9.55801 15.2615 7.76808 
-9.52399 14.5740 7.76195 
-9.48901 13.8865 7.75582 
-9.45401 13.1991 7.74969 
-9.41901 12.5116 7.74356 
-9.38501 11.8242 7.73743 
-9.35001 11.1367 7.73130 
-9.31500 10.4493 7.72517 
-9.28000 9.76180 7.71904 
-9.24600 9.07440 7.71291 
-9.21100 8.38690 7.70678 
-9.17599 7.69950 7.70065 
-9.14099 7.01200 7.69452 
-9.10699 6.32460 7.68839 
-9.07199 5.63710 7.68226 
-9.03699 4.94970 7.67613 
-9.00201 4.26220 7.67000 
-8.96799 3.57480 7.66387 
-8.93301 2.88730 7.65774 
-8.89801 2.19990 7.65161 
-8.86301 1.51240 7.64548 
-9.06000 0.809303 8.61323 
-9.02499 0.123398 8.60711 
-8.98999 -0.562401 8.60099 
-8.95599 -1.24830 8.59488 
-8.92099 -1.93420 8.58876 
-8.88599 -2.62000 8.58265 
-8.85199 -3.30590 8.57653 
-8.81699 -3.99180 8.57041 
-8.78201 -4.67760 8.56430 
-8.74799 -5.36350 8.55818 
-8.94501 -6.04910 9.52612 
-8.91000 -6.73340 9.52001 
-8.87601 -7.41760 9.51391 
-8.84100 -8.10190 9.50781 
-8.80701 -8.78620 9.50171 
-8.77200 -9.47050 9.49561 
-8.73700 -10.1547 9.48950 
-8.70300 -10.8390 9.48340 
-8.66800 -11.5233 9.47730 
-8.63400 -12.2075 9.47120 
-8.83200 -12.8757 10.4393 
-8.79700 -13.5583 10.4332 
-8.76300 -14.2410 10.4271 
-8.72800 -14.9237 10.4210 
-8.69400 -15.6064 10.4149 
-8.65900 -16.2891 10.4088 
-8.62500 -16.9717 10.4027 
-8.59000 -17.6544 10.3966 
-8.55600 -18.3371 10.3906 
-8.52100 -19.0198 10.3845 
-8.48700 -19.7024 10.3784 
-8.45200 -20.3851 10.3723 
-8.41800 -21.0678 10.3662 
-8.38300 -21.7505 10.3601 
-8.34900 -22.4332 10.3540 
-8.31400 -23.1158 10.3479 
-8.28000 -23.7985 10.3419 
-8.24500 -24.4812 10.3358 
-8.21100 -25.1639 10.3297 
-8.17599 -25.8465 10.3236 
-8.14099 -26.5292 10.3175 
-8.10699 -27.2119 10.3114 
-8.07199 -27.8946 10.3053 
-7.80301 -28.6300 9.32476 
-7.76901 -29.3143 9.31865 
-7.73401 -29.9985 9.31255 
-7.46500 -30.7403 8.33189 
-6.95999 -31.5444 6.37665 
-6.45599 -32.3548 4.42136 
-9.62799 35.1320 0.996777 
-10.0440 34.2500 2.93757 
-10.2340 33.4640 3.90488 
-10.4250 32.6810 4.87221 
-10.6160 31.9017 5.83961 
-10.5810 31.2111 5.83345 
-10.5460 30.5205 5.82729 
-10.7370 29.7474 6.79471 
-10.7030 29.0583 6.78857 
-10.6680 28.3693 6.78242 
-10.6330 27.6803 6.77628 
-10.5980 26.9912 6.77013 
-10.5630 26.3022 6.76399 
-10.7550 25.5402 7.73154 
-10.7200 24.8528 7.72541 
-10.6860 24.1653 7.71928 
-10.6510 23.4779 7.71315 
-10.6160 22.7904 7.70702 
-10.5810 22.1030 7.70089 
-10.5470 21.4155 7.69476 
-10.5120 20.7281 7.68863 
-10.4770 20.0406 7.68250 
-10.4420 19.3532 7.67637 
-10.4080 18.6657 7.67024 
-10.3730 17.9783 7.66411 
-10.3380 17.2908 7.65798 
-10.3030 16.6034 7.65185 
-10.2690 15.9159 7.64572 
-10.2340 15.2285 7.63959 
-10.1990 14.5410 7.63345 
-10.1640 13.8535 7.62732 
-10.1300 13.1661 7.62119 
-10.0950 12.4786 7.61506 
-10.0600 11.7912 7.60893 
-10.0250 11.1037 7.60280 
-9.99100 10.4163 7.59667 
-9.95599 9.72880 7.59054 
-9.92099 9.04140 7.58441 
-10.1150 8.32080 8.55230 
-10.0800 7.63500 8.54619 
-10.0460 6.94910 8.54007 
-10.0110 6.26320 8.53396 
-9.97601 5.57740 8.52784 
-9.94199 4.89150 8.52172 
-9.90701 4.20570 8.51561 
-9.87201 3.51980 8.50949 
-9.83801 2.83390 8.50338 
-9.80301 2.14810 8.49726 
-9.76801 1.46220 8.49114 
-9.73401 0.776299 8.48503 
-9.69901 0.0904999 8.47891 
-9.66400 -0.595398 8.47279 
-9.63000 -1.28120 8.46668 
-9.59500 -1.96710 8.46056 
-9.56000 -2.65300 8.45445 
-9.52600 -3.33880 8.44833 
-9.49100 -4.02470 8.44221 
-9.45599 -4.71050 8.43610 
-9.65201 -5.39770 9.40432 
-9.61700 -6.08200 9.39821 
-9.58301 -6.76620 9.39211 
-9.54800 -7.45050 9.38601 
-9.51300 -8.13480 9.37991 
-9.47900 -8.81900 9.37381 
-9.44400 -9.50330 9.36770 
-9.41000 -10.1876 9.36160 
-9.37500 -10.8718 9.35550 
-9.57101 -11.5431 10.3238 
-9.53699 -12.2258 10.3177 
-9.50201 -12.9084 10.3117 
-9.46799 -13.5911 10.3056 
-9.43301 -14.2738 10.2995 
-9.39899 -14.9565 10.2934 
-9.36401 -15.6391 10.2873 
-9.32999 -16.3218 10.2812 
-9.29501 -17.0045 10.2751 
-9.26099 -17.6872 10.2690 
-9.22601 -18.3699 10.2630 
-9.19199 -19.0525 10.2569 
-9.15701 -19.7352 10.2508 
-9.12299 -20.4179 10.2447 
-9.08801 -21.1006 10.2386 
-9.05399 -21.7833 10.2325 
-9.01901 -22.4659 10.2264 
-8.98499 -23.1486 10.2203 
-8.95001 -23.8313 10.2143 
-8.91599 -24.5140 10.2082 
-8.88101 -25.1966 10.2021 
-8.84698 -25.8793 10.1960 
-8.81201 -26.5620 10.1899 
-8.77802 -27.2447 10.1838 
-8.74301 -27.9274 10.1777 
-8.70901 -28.6100 10.1716 
-8.44101 -29.3471 9.19075 
-8.40701 -30.0314 9.18465 
-8.13901 -30.7732 8.20369 
-7.40399 -31.6367 5.27301 
-6.90201 -32.4488 3.31711 
-10.5030 34.3080 1.83376 
-10.9160 33.4310 3.77519 
-11.1050 32.6480 4.74282 
-11.0700 31.9557 4.73665 
-11.2600 31.1780 5.70435 
-11.2250 30.4873 5.69820 
-11.4140 29.7143 6.66592 
-11.3800 29.0253 6.65977 
-11.3450 28.3362 6.65363 
-11.3100 27.6472 6.64748 
-11.2750 26.9581 6.64134 
-11.4650 26.1947 7.60917 
-11.4310 25.5072 7.60304 
-11.3960 24.8198 7.59691 
-11.3610 24.1323 7.59078 
-11.3260 23.4449 7.58465 
-11.2920 22.7574 7.57852 
-11.2570 22.0700 7.57239 
-11.2220 21.3825 7.56626 
-11.1870 20.6951 7.56013 
-11.1530 20.0076 7.55400 
-11.1180 19.3202 7.54787 
-11.0830 18.6327 7.54174 
-11.0480 17.9453 7.53561 
-11.0140 17.2578 7.52948 
-10.9790 16.5704 7.52335 
-10.9440 15.8829 7.51722 
-10.9090 15.1955 7.51109 
-10.8750 14.5080 7.50496 
-10.8400 13.8205 7.49883 
-10.8050 13.1331 7.49270 
-10.7700 12.4456 7.48657 
-10.7360 11.7582 7.48044 
-10.7010 11.0707 7.47431 
-10.6660 10.3833 7.46818 
-10.8580 9.65960 8.43634 
-10.8240 8.97380 8.43022 
-10.7890 8.28790 8.42410 
-10.7540 7.60200 8.41799 
-10.7200 6.91620 8.41187 
-10.6850 6.23030 8.40576 
-10.6500 5.54440 8.39964 
-10.6160 4.85860 8.39352 
-10.5810 4.17270 8.38741 
-10.5460 3.48690 8.38129 
-10.5120 2.80100 8.37518 
-10.4770 2.11520 8.36906 
-10.4420 1.42930 8.36294 
-10.4070 0.743401 8.35683 
-10.3730 0.0576019 8.35071 
-10.3380 -0.628304 8.34459 
-10.3030 -1.31420 8.33848 
-10.2690 -2.00000 8.33236 
-10.2340 -2.68590 8.32625 
-10.1990 -3.37170 8.32013 
-10.1650 -4.05760 8.31402 
-10.3590 -4.74630 9.28252 
-10.3240 -5.43050 9.27641 
-10.2900 -6.11480 9.27031 
-10.2550 -6.79910 9.26421 
-10.2200 -7.48330 9.25811 
-10.1860 -8.16760 9.25201 
-10.1510 -8.85190 9.24590 
-10.1170 -9.53620 9.23980 
-10.0820 -10.2204 9.23370 
-10.2770 -10.8932 10.2023 
-10.2420 -11.5758 10.1962 
-10.2080 -12.2585 10.1901 
-10.1730 -12.9412 10.1841 
-10.1390 -13.6239 10.1780 
-10.1040 -14.3066 10.1719 
-10.0700 -14.9892 10.1658 
-10.0350 -15.6719 10.1597 
-10.0010 -16.3546 10.1536 
-9.96600 -17.0373 10.1475 
-9.93201 -17.7200 10.1414 
-9.89700 -18.4026 10.1354 
-9.86301 -19.0853 10.1293 
-9.82800 -19.7680 10.1232 
-9.79401 -20.4507 10.1171 
-9.75900 -21.1333 10.1110 
-9.72501 -21.8160 10.1049 
-9.69000 -22.4987 10.0988 
-9.65601 -23.1814 10.0927 
-9.62100 -23.8641 10.0866 
-9.58701 -24.5467 10.0806 
-9.55200 -25.2294 10.0745 
-9.51801 -25.9121 10.0684 
-9.48300 -26.5948 10.0623 
-9.44800 -27.2774 10.0562 
-9.41400 -27.9601 10.0501 
-9.37900 -28.6428 10.0440 
-9.11301 -29.3800 9.06285 
-9.07901 -30.0642 9.05675 
-8.58099 -30.8638 7.10036 
-8.08301 -31.6698 5.14392 
-7.58401 -32.4821 3.18743 
-11.1880 34.2750 1.70348 
-11.3750 33.4870 2.67140 
-11.5630 32.7030 3.63931 
-11.7500 31.9225 4.60726 
-11.9380 31.1448 5.57526 
-11.9030 30.4542 5.56910 
-11.8680 29.7635 5.56295 
-12.0570 28.9922 6.53098 
-12.0220 28.3032 6.52483 
-11.9870 27.6141 6.51869 
-11.9520 26.9251 6.51254 
-12.1410 26.1617 7.48067 
-12.1060 25.4742 7.47454 
-12.0710 24.7868 7.46841 
-12.0370 24.0993 7.46228 
-12.0020 23.4119 7.45615 
-11.9670 22.7244 7.45002 
-11.9320 22.0370 7.44389 
-11.8980 21.3495 7.43776 
-11.8630 20.6621 7.43163 
-11.8280 19.9746 7.42550 
-11.7930 19.2872 7.41937 
-11.7590 18.5997 7.41324 
-11.7240 17.9123 7.40711 
-11.6890 17.2248 7.40098 
-11.6540 16.5374 7.39485 
-11.6200 15.8499 7.38872 
-11.5850 15.1625 7.38259 
-11.5500 14.4750 7.37646 
-11.5150 13.7876 7.37033 
-11.4800 13.1001 7.36420 
-11.4460 12.4127 7.35807 
-11.4110 11.7252 7.35194 
-11.6010 10.9984 8.32037 
-11.5670 10.3126 8.31425 
-11.5320 9.62670 8.30814 
-11.4970 8.94080 8.30202 
-11.4630 8.25500 8.29590 
-11.4280 7.56910 8.28979 
-11.3930 6.88330 8.28367 
-11.3590 6.19740 8.27756 
-11.3240 5.51150 8.27144 
-11.2890 4.82570 8.26532 
-11.2550 4.13980 8.25921 
-11.2200 3.45390 8.25309 
-11.1850 2.76810 8.24697 
-11.1510 2.08220 8.24086 
-11.1160 1.39640 8.23474 
-11.0810 0.710503 8.22863 
-11.0470 0.0245972 8.22251 
-11.0120 -0.661201 8.21640 
-10.9770 -1.34710 8.21028 
-10.9430 -2.03290 8.20416 
-10.9080 -2.71880 8.19805 
-10.8730 -3.40470 8.19193 
-11.0660 -4.09480 9.16072 
-11.0310 -4.77910 9.15461 
-10.9960 -5.46340 9.14851 
-10.9620 -6.14760 9.14241 
-10.9270 -6.83190 9.13631 
-10.8930 -7.51620 9.13021 
-10.8580 -8.20050 9.12410 
-10.8240 -8.88470 9.11800 
-10.7890 -9.56900 9.11190 
-10.9820 -10.2433 10.0808 
-10.9480 -10.9259 10.0747 
-10.9130 -11.6086 10.0686 
-10.8780 -12.2913 10.0625 
-10.8440 -12.9740 10.0564 
-10.8090 -13.6567 10.0504 
-10.7750 -14.3393 10.0443 
-10.7400 -15.0220 10.0382 
-10.7060 -15.7047 10.0321 
-10.6710 -16.3874 10.0260 
-10.6370 -17.0700 10.0199 
-10.6020 -17.7527 10.0138 
-10.5680 -18.4354 10.0077 
-10.5330 -19.1181 10.0017 
-10.4990 -19.8008 9.99557 
-10.4640 -20.4834 9.98948 
-10.4300 -21.1661 9.98339 
-10.3950 -21.8488 9.97731 
-10.3610 -22.5315 9.97122 
-10.3260 -23.2141 9.96513 
-10.2920 -23.8968 9.95904 
-10.4870 -24.5361 10.9283 
-10.4520 -25.2172 10.9222 
-10.1880 -25.9449 9.94078 
-10.1540 -26.6275 9.93469 
-10.1190 -27.3102 9.92861 
-10.0850 -27.9929 9.92252 
-10.0500 -28.6756 9.91643 
-9.78601 -29.4128 8.93495 
-9.75101 -30.0971 8.92884 
-9.25601 -30.8968 6.97187 
-8.76099 -31.7030 5.01483 
-8.26599 -32.5154 3.05774 
-11.8370 33.5440 1.56698 
-12.0230 32.7590 2.53521 
-12.2090 31.9763 3.50344 
-12.3960 31.1971 4.47170 
-12.5820 30.4210 5.44001 
-12.5470 29.7304 5.43385 
-12.7340 28.9591 6.40218 
-12.6990 28.2701 6.39604 
-12.6640 27.5810 6.38989 
-12.6290 26.8920 6.38375 
-12.8160 26.1287 7.35218 
-12.7810 25.4412 7.34605 
-12.7470 24.7538 7.33992 
-12.7120 24.0663 7.33379 
-12.6770 23.3789 7.32766 
-12.6420 22.6914 7.32153 
-12.6080 22.0040 7.31540 
-12.5730 21.3165 7.30927 
-12.7610 20.5676 8.27779 
-12.7260 19.8817 8.27168 
-12.6910 19.1958 8.26556 
-12.4340 18.5667 7.28474 
-12.3990 17.8793 7.27861 
-12.3640 17.1918 7.27248 
-12.3300 16.5044 7.26635 
-12.2950 15.8169 7.26022 
-12.2600 15.1295 7.25409 
-12.4490 14.3948 8.22275 
-12.4140 13.7089 8.21663 
-12.3790 13.0231 8.21052 
-12.3450 12.3372 8.20440 
-12.3100 11.6514 8.19828 
-12.2750 10.9655 8.19217 
-12.2410 10.2796 8.18605 
-12.2060 9.59380 8.17994 
-12.1710 8.90790 8.17382 
-12.1370 8.22200 8.16770 
-12.1020 7.53620 8.16159 
-12.0670 6.85030 8.15547 
-12.0330 6.16450 8.14936 
-11.9980 5.47860 8.14324 
-11.9630 4.79270 8.13712 
-11.9290 4.10690 8.13101 
-11.8940 3.42100 8.12489 
-11.8590 2.73520 8.11878 
-11.8250 2.04930 8.11266 
-11.7900 1.36340 8.10654 
-11.7550 0.677597 8.10043 
-11.7210 -0.00830078 8.09431 
-11.6860 -0.694099 8.08820 
-11.6510 -1.38000 8.08208 
-11.6170 -2.06590 8.07596 
-11.5820 -2.75170 8.06985 
-11.7730 -3.44340 9.03891 
-11.7380 -4.12770 9.03281 
-11.7030 -4.81200 9.02671 
-11.6690 -5.49620 9.02061 
-11.6340 -6.18050 9.01451 
-11.6000 -6.86480 9.00840 
-11.5650 -7.54900 9.00230 
-11.5300 -8.23330 8.99620 
-11.4960 -8.91760 8.99010 
-11.6870 -9.59340 9.95928 
-11.6530 -10.2760 9.95319 
-11.6180 -10.9587 9.94710 
-11.5840 -11.6414 9.94102 
-11.5490 -12.3241 9.93493 
-11.5150 -13.0067 9.92884 
-11.4800 -13.6894 9.92275 
-11.4460 -14.3721 9.91667 
-11.4110 -15.0548 9.91058 
-11.3770 -15.7375 9.90449 
-11.3420 -16.4201 9.89840 
-11.3080 -17.1028 9.89231 
-11.2730 -17.7855 9.88623 
-11.2390 -18.4682 9.88014 
-11.2040 -19.1508 9.87405 
-11.1700 -19.8335 9.86796 
-11.1350 -20.5162 9.86188 
-11.1010 -21.1989 9.85579 
-11.2940 -21.8444 10.8252 
-11.2590 -22.5255 10.8192 
-11.2250 -23.2066 10.8131 
-11.1900 -23.8877 10.8070 
-11.1560 -24.5688 10.8009 
-11.1210 -25.2499 10.7949 
-11.0870 -25.9310 10.7888 
-11.0530 -26.6120 10.7827 
-10.7900 -27.3430 9.80100 
-10.7560 -28.0257 9.79491 
-10.7210 -28.7083 9.78883 
-10.4580 -29.4457 8.80704 
-10.1950 -30.1862 7.82521 
-9.70300 -30.9877 5.86762 
-9.21100 -31.7955 3.90997 
-8.71899 -32.6097 1.95230 
-12.3030 33.6010 0.462001 
-12.4870 32.8140 1.43048 
-12.6710 32.0300 2.39903 
-12.8560 31.2491 3.36757 
-13.0410 30.4716 4.33614 
-13.0060 29.7794 4.32996 
-13.1910 29.0066 5.29860 
-13.1560 28.3160 5.29244 
-13.3410 27.5480 6.26110 
-13.3060 26.8589 6.25495 
-13.2710 26.1699 6.24881 
-13.2370 25.4808 6.24267 
-13.4220 24.7208 7.21142 
-13.3870 24.0333 7.20529 
-13.3530 23.3459 7.19916 
-13.3180 22.6584 7.19303 
-13.2830 21.9710 7.18690 
-13.2480 21.2835 7.18077 
-13.4350 20.5346 8.14959 
-13.4000 19.8488 8.14348 
-13.3650 19.1629 8.13736 
-13.3310 18.4770 8.13125 
-13.2960 17.7912 8.12513 
-13.2610 17.1053 8.11901 
-13.2270 16.4195 8.11290 
-13.1920 15.7336 8.10678 
-13.1570 15.0477 8.10066 
-13.1230 14.3619 8.09455 
-13.0880 13.6760 8.08843 
-13.0530 12.9902 8.08232 
-13.0190 12.3043 8.07620 
-12.9840 11.6184 8.07008 
-12.9490 10.9326 8.06397 
-12.9150 10.2467 8.05785 
-12.8800 9.56090 8.05174 
-12.8450 8.87500 8.04562 
-12.8110 8.18910 8.03950 
-12.7760 7.50330 8.03339 
-12.7410 6.81740 8.02727 
-12.7070 6.13150 8.02116 
-12.6720 5.44570 8.01504 
-12.6370 4.75980 8.00892 
-12.6030 4.07400 8.00281 
-12.5680 3.38810 7.99669 
-12.5330 2.70220 7.99058 
-12.4990 2.01640 7.98446 
-12.4640 1.33050 7.97834 
-12.4290 0.644699 7.97223 
-12.3950 -0.0411987 7.96611 
-12.3600 -0.727097 7.96000 
-12.3250 -1.41290 7.95388 
-12.5140 -2.10770 8.92322 
-12.4790 -2.79200 8.91711 
-12.4450 -3.47630 8.91101 
-12.4100 -4.16050 8.90491 
-12.3760 -4.84480 8.89881 
-12.3410 -5.52910 8.89271 
-12.3070 -6.21330 8.88660 
-12.2720 -6.89760 8.88050 
-12.2370 -7.58190 8.87440 
-12.2030 -8.26610 8.86830 
-12.1680 -8.95040 8.86220 
-12.3580 -9.62610 9.83167 
-12.3240 -10.3088 9.82559 
-12.2890 -10.9915 9.81950 
-12.2550 -11.6742 9.81341 
-12.2200 -12.3568 9.80732 
-12.1850 -13.0395 9.80124 
-12.1510 -13.7222 9.79515 
-12.1160 -14.4049 9.78906 
-12.0820 -15.0875 9.78297 
-12.0470 -15.7702 9.77689 
-12.0130 -16.4529 9.77080 
-11.9780 -17.1356 9.76471 
-11.9440 -17.8183 9.75862 
-11.9090 -18.5009 9.75253 
-11.8750 -19.1836 9.74645 
-12.0660 -19.8339 10.7162 
-12.0320 -20.5149 10.7101 
-11.7710 -21.2317 9.72818 
-11.9630 -21.8771 10.6979 
-11.9280 -22.5582 10.6919 
-11.8940 -23.2393 10.6858 
-11.8590 -23.9204 10.6797 
-11.8250 -24.6015 10.6736 
-11.7910 -25.2826 10.6676 
-11.5300 -26.0104 9.68557 
-11.4950 -26.6931 9.67948 
-11.4610 -27.3758 9.67340 
-11.4260 -28.0584 9.66731 
-11.1650 -28.7942 8.68524 
-11.1300 -29.4785 8.67914 
-10.8690 -30.2191 7.69701 
-10.1530 -31.0786 4.76281 
-9.66400 -31.8882 2.80455 
-12.9190 32.1700 0.318962 
-13.3200 31.3011 2.26284 
-13.5030 30.5220 3.23169 
-13.4680 29.8282 3.22551 
-13.6510 29.0539 4.19440 
-13.6160 28.3617 4.18823 
-13.8000 27.5922 5.15719 
-13.7650 26.9015 5.15103 
-13.9480 26.1368 6.12002 
-13.9140 25.4478 6.11387 
-13.8790 24.7587 6.10773 
-14.0630 24.0003 7.07679 
-14.0280 23.3129 7.07066 
-13.9930 22.6254 7.06453 
-13.9590 21.9380 7.05840 
-14.1430 21.1876 8.02751 
-14.1090 20.5017 8.02139 
-14.0740 19.8158 8.01528 
-14.0390 19.1300 8.00916 
-14.0040 18.4441 8.00305 
-13.9700 17.7583 7.99693 
-13.9350 17.0724 7.99081 
-13.9000 16.3865 7.98470 
-13.8660 15.7007 7.97858 
-13.8310 15.0148 7.97247 
-13.7960 14.3290 7.96635 
-13.7620 13.6431 7.96023 
-13.7270 12.9572 7.95412 
-13.6920 12.2714 7.94800 
-13.6580 11.5855 7.94188 
-13.6230 10.8997 7.93577 
-13.5880 10.2138 7.92965 
-13.5540 9.52790 7.92354 
-13.5190 8.84210 7.91742 
-13.4840 8.15620 7.91130 
-13.4500 7.47030 7.90519 
-13.4150 6.78450 7.89907 
-13.3800 6.09860 7.89296 
-13.3460 5.41280 7.88684 
-13.3110 4.72690 7.88072 
-13.2760 4.04100 7.87461 
-13.2420 3.35520 7.86849 
-13.2070 2.66930 7.86238 
-13.1720 1.98350 7.85626 
-13.1380 1.29760 7.85014 
-13.1030 0.611702 7.84403 
-13.2900 -0.0877991 8.81362 
-13.2560 -0.772003 8.80752 
-13.2210 -1.45630 8.80142 
-13.1860 -2.14060 8.79531 
-13.1520 -2.82480 8.78921 
-13.1170 -3.50910 8.78311 
-13.0830 -4.19340 8.77701 
-13.0480 -4.87760 8.77091 
-13.0130 -5.56190 8.76480 
-12.9790 -6.24620 8.75870 
-12.9440 -6.93050 8.75260 
-12.9100 -7.61470 8.74650 
-12.8750 -8.29900 8.74040 
-13.0630 -8.97620 9.71016 
-13.0290 -9.65890 9.70407 
-12.9940 -10.3416 9.69798 
-12.9600 -11.0242 9.69189 
-12.9250 -11.7069 9.68581 
-12.8910 -12.3896 9.67972 
-12.8560 -13.0723 9.67363 
-12.8220 -13.7550 9.66754 
-12.7870 -14.4376 9.66146 
-12.7530 -15.1203 9.65537 
-12.7180 -15.8030 9.64928 
-12.6840 -16.4857 9.64319 
-12.6490 -17.1684 9.63710 
-12.8390 -17.8233 10.6071 
-12.8040 -18.5044 10.6010 
-12.7700 -19.1855 10.5949 
-12.7350 -19.8666 10.5888 
-12.7010 -20.5476 10.5828 
-12.6660 -21.2287 10.5767 
-12.6320 -21.9098 10.5706 
-12.5980 -22.5909 10.5645 
-12.5630 -23.2720 10.5585 
-12.3040 -23.9951 9.57623 
-12.2700 -24.6778 9.57014 
-12.2350 -25.3605 9.56405 
-12.2010 -26.0432 9.55797 
-12.1660 -26.7258 9.55188 
-11.9070 -27.4585 8.56954 
-11.8720 -28.1428 8.56344 
-11.6120 -28.8803 7.58104 
-11.5780 -29.5661 7.57492 
-11.0920 -30.3648 5.61617 
-10.6070 -31.1698 3.65737 
-10.1210 -31.9811 1.69853 
-13.7510 30.6559 1.15127 
-13.9330 29.8769 2.12045 
-14.1140 29.1011 3.08963 
-14.0790 28.4073 3.08344 
-14.2610 27.6362 4.05267 
-14.2260 26.9440 4.04649 
-14.4080 26.1777 5.01578 
-14.5910 25.4147 5.98508 
-14.5560 24.7256 5.97893 
-14.7380 23.9673 6.94829 
-14.7040 23.2799 6.94216 
-14.6690 22.5924 6.93603 
-14.6340 21.9050 6.92990 
-14.8170 21.1546 7.89931 
-14.7820 20.4688 7.89319 
-14.7480 19.7829 7.88708 
-14.7130 19.0971 7.88096 
-14.6780 18.4112 7.87484 
-14.6440 17.7253 7.86873 
-14.6090 17.0395 7.86261 
-14.5740 16.3536 7.85650 
-14.5400 15.6678 7.85038 
-14.5050 14.9819 7.84426 
-14.4700 14.2960 7.83815 
-14.4360 13.6102 7.83203 
-14.4010 12.9243 7.82592 
-14.3660 12.2384 7.81980 
-14.3320 11.5526 7.81368 
-14.2970 10.8667 7.80757 
-14.2620 10.1809 7.80145 
-14.2280 9.49500 7.79534 
-14.1930 8.80910 7.78922 
-14.1580 8.12330 7.78310 
-14.1240 7.43740 7.77699 
-14.0890 6.75160 7.77087 
-14.0540 6.06570 7.76476 
-14.2390 5.35360 8.73453 
-14.2050 4.66930 8.72843 
-14.1700 3.98500 8.72233 
-14.1350 3.30070 8.71623 
-14.1010 2.61650 8.71012 
-14.0660 1.93220 8.70402 
-14.0320 1.24790 8.69792 
-13.9970 0.563698 8.69182 
-13.9620 -0.120598 8.68572 
-13.9280 -0.804901 8.67961 
-13.8930 -1.48910 8.67351 
-13.8590 -2.17340 8.66741 
-13.8240 -2.85770 8.66131 
-13.7900 -3.54200 8.65521 
-13.7550 -4.22620 8.64911 
-13.7200 -4.91050 8.64300 
-13.6860 -5.59480 8.63690 
-13.6510 -6.27900 8.63080 
-13.6170 -6.96330 8.62470 
-13.5820 -7.64760 8.61860 
-13.5470 -8.33180 8.61249 
-13.7340 -9.00900 9.58255 
-13.7000 -9.69170 9.57646 
-13.6650 -10.3743 9.57038 
-13.6310 -11.0570 9.56429 
-13.5960 -11.7397 9.55820 
-13.5620 -12.4224 9.55211 
-13.5270 -13.1051 9.54603 
-13.4920 -13.7877 9.53994 
-13.4580 -14.4704 9.53385 
-13.4230 -15.1531 9.52776 
-13.3890 -15.8358 9.52168 
-13.3540 -16.5184 9.51559 
-13.5420 -17.1749 10.4858 
-13.5080 -17.8560 10.4798 
-13.4730 -18.5371 10.4737 
-13.4390 -19.2182 10.4676 
-13.4040 -19.8992 10.4615 
-13.3700 -20.5803 10.4555 
-13.3360 -21.2614 10.4494 
-13.0780 -21.9799 9.46689 
-13.0440 -22.6625 9.46080 
-13.0090 -23.3452 9.45471 
-12.9750 -24.0279 9.44862 
-12.9400 -24.7106 9.44254 
-12.6830 -25.4386 8.45995 
-12.6480 -26.1228 8.45385 
-12.6130 -26.8071 8.44775 
-12.3550 -27.5415 7.46507 
-12.3210 -28.2273 7.45896 
-12.0620 -28.9665 6.47627 
-11.8040 -29.7088 5.49352 
-11.3220 -30.5107 3.53415 
-11.0630 -31.2610 2.55136 
-14.3650 29.2284 1.00856 
-14.5460 28.4527 1.97807 
-14.7260 27.6801 2.94757 
-14.6910 26.9863 2.94138 
-14.8710 26.2186 3.91093 
-15.0520 25.4540 4.88053 
-15.2330 24.6926 5.85014 
-15.1980 24.0035 5.84399 
-15.1630 23.3145 5.83785 
-15.3440 22.5594 6.80754 
-15.3100 21.8720 6.80141 
-15.4910 21.1217 7.77111 
-15.4560 20.4359 7.76499 
-15.4220 19.7500 7.75888 
-15.3870 19.0641 7.75276 
-15.3520 18.3783 7.74665 
-15.3180 17.6924 7.74053 
-15.2830 17.0066 7.73441 
-15.2480 16.3207 7.72830 
-15.2140 15.6348 7.72218 
-15.1790 14.9490 7.71607 
-15.1440 14.2631 7.70995 
-15.1100 13.5772 7.70383 
-15.0750 12.8914 7.69772 
-15.0400 12.2055 7.69160 
-15.0060 11.5197 7.68549 
-14.9710 10.8338 7.67937 
-14.9360 10.1479 7.67325 
-14.9020 9.46210 7.66714 
-14.8670 8.77620 7.66102 
-14.8320 8.09040 7.65490 
-14.7980 7.40450 7.64879 
-14.9810 6.68920 8.61883 
-14.9460 6.00500 8.61273 
-14.9120 5.32070 8.60663 
-14.8770 4.63640 8.60053 
-14.8420 3.95220 8.59443 
-14.8080 3.26790 8.58832 
-14.7730 2.58360 8.58222 
-14.7390 1.89940 8.57612 
-14.7040 1.21510 8.57002 
-14.6690 0.530800 8.56392 
-14.6350 -0.153503 8.55781 
-14.6000 -0.837700 8.55171 
-14.5660 -1.52200 8.54561 
-14.5310 -2.20630 8.53951 
-14.4960 -2.89050 8.53341 
-14.4620 -3.57480 8.52730 
-14.4270 -4.25910 8.52120 
-14.3930 -4.94330 8.51510 
-14.3580 -5.62760 8.50900 
-14.3240 -6.31190 8.50290 
-14.2890 -6.99610 8.49680 
-14.2540 -7.68040 8.49069 
-14.2200 -8.36470 8.48459 
-14.4050 -9.04180 9.45495 
-14.3700 -9.72440 9.44886 
-14.3360 -10.4071 9.44277 
-14.3010 -11.0898 9.43668 
-14.2670 -11.7725 9.43060 
-14.2320 -12.4551 9.42451 
-14.1980 -13.1378 9.41842 
-14.1630 -13.8205 9.41233 
-14.1290 -14.5032 9.40625 
-14.0940 -15.1859 9.40016 
-14.0600 -15.8685 9.39407 
-14.2460 -16.5265 10.3646 
-14.2110 -17.2076 10.3585 
-14.1770 -17.8887 10.3524 
-14.1430 -18.5698 10.3464 
-14.1080 -19.2509 10.3403 
-14.0740 -19.9319 10.3342 
-13.8180 -20.6473 9.35146 
-13.7840 -21.3300 9.34537 
-13.7490 -22.0126 9.33928 
-13.7150 -22.6953 9.33319 
-13.6800 -23.3780 9.32711 
-13.4240 -24.1029 8.34425 
-13.3900 -24.7872 8.33815 
-13.1330 -25.5168 7.35522 
-13.0990 -26.2027 7.34910 
-12.8420 -26.9371 6.36616 
-12.8070 -27.6246 6.36003 
-12.5510 -28.3638 5.37702 
-12.2940 -29.1062 4.39400 
-12.0370 -29.8518 3.41093 
-11.7800 -30.6005 2.42786 
-14.9800 27.8010 0.865850 
-15.1580 27.0285 1.83568 
-15.3370 26.2592 2.80551 
-15.5160 25.4931 3.77537 
-15.6960 24.7302 4.74528 
-15.8750 23.9704 5.71520 
-15.8400 23.2814 5.70905 
-16.0200 22.5264 6.67904 
-15.9850 21.8390 6.67291 
-15.9500 21.1515 6.66678 
-16.1300 20.4029 7.63679 
-16.0950 19.7171 7.63068 
-16.0610 19.0312 7.62456 
-16.0260 18.3454 7.61845 
-15.9910 17.6595 7.61233 
-15.9570 16.9736 7.60621 
-15.9220 16.2878 7.60010 
-15.8870 15.6019 7.59398 
-15.8530 14.9160 7.58787 
-15.8180 14.2302 7.58175 
-15.7830 13.5443 7.57563 
-15.7490 12.8585 7.56952 
-15.7140 12.1726 7.56340 
-15.6790 11.4867 7.55729 
-15.6450 10.8009 7.55117 
-15.6100 10.1150 7.54505 
-15.5750 9.42920 7.53894 
-15.7570 8.70920 8.50924 
-15.7220 8.02490 8.50313 
-15.6880 7.34070 8.49703 
-15.6530 6.65640 8.49093 
-15.6180 5.97210 8.48483 
-15.5840 5.28790 8.47873 
-15.5490 4.60360 8.47262 
-15.5150 3.91930 8.46652 
-15.4800 3.23500 8.46042 
-15.4450 2.55080 8.45432 
-15.4110 1.86650 8.44822 
-15.3760 1.18220 8.44212 
-15.3420 0.498001 8.43601 
-15.3070 -0.186302 8.42991 
-15.2730 -0.870598 8.42381 
-15.2380 -1.55480 8.41771 
-15.2030 -2.23910 8.41161 
-15.1690 -2.92340 8.40551 
-15.1340 -3.60770 8.39940 
-15.1000 -4.29190 8.39330 
-15.0650 -4.97620 8.38720 
-15.0300 -5.66050 8.38110 
-14.9960 -6.34470 8.37500 
-14.9610 -7.02900 8.36889 
-14.9270 -7.71330 8.36279 
-14.8920 -8.39750 8.35669 
-15.0760 -9.07450 9.32734 
-15.0410 -9.75720 9.32126 
-15.0070 -10.4399 9.31517 
-14.9720 -11.1226 9.30908 
-14.9380 -11.8052 9.30299 
-14.9030 -12.4879 9.29690 
-14.8690 -13.1706 9.29082 
-14.8340 -13.8533 9.28473 
-14.7990 -14.5359 9.27864 
-14.7650 -15.2186 9.27255 
-14.9490 -15.8781 10.2434 
-14.9150 -16.5592 10.2373 
-14.8810 -17.2403 10.2312 
-14.8460 -17.9214 10.2251 
-14.8120 -18.6025 10.2191 
-14.7770 -19.2835 10.2130 
-14.5230 -19.9974 9.22994 
-14.4890 -20.6800 9.22385 
-14.4540 -21.3627 9.21776 
-14.4200 -22.0454 9.21168 
-14.3850 -22.7281 9.20559 
-14.1310 -23.4515 8.22245 
-13.8770 -24.1780 7.23925 
-13.8420 -24.8639 7.23314 
-13.5870 -25.5952 6.24993 
-13.3320 -26.3297 5.26666 
-13.2970 -27.0188 5.26051 
-13.0420 -27.7581 4.27723 
-12.7870 -28.5005 3.29389 
-12.5320 -29.2462 2.31055 
-12.2760 -29.9950 1.32718 
-15.6290 27.0705 0.729353 
-15.8070 26.2997 1.69949 
-15.9840 25.5321 2.66964 
-16.1620 24.7677 3.63981 
-16.3390 24.0064 4.61003 
-16.5170 23.2483 5.58026 
-16.4820 22.5593 5.57411 
-16.6600 21.8060 6.54441 
-16.6260 21.1185 6.53828 
-16.8040 20.3700 7.50859 
-16.7690 19.6842 7.50248 
-16.7350 18.9983 7.49636 
-16.7000 18.3124 7.49025 
-16.6650 17.6266 7.48413 
-16.6310 16.9407 7.47801 
-16.5960 16.2548 7.47190 
-16.5610 15.5690 7.46578 
-16.5270 14.8831 7.45967 
-16.4920 14.1973 7.45355 
-16.4570 13.5114 7.44743 
-16.4230 12.8255 7.44132 
-16.3880 12.1397 7.43520 
-16.5680 11.4134 8.40574 
-16.5330 10.7292 8.39964 
-16.4980 10.0449 8.39354 
-16.4640 9.36060 8.38743 
-16.4290 8.67640 8.38133 
-16.3950 7.99210 8.37523 
-16.3600 7.30780 8.36913 
-16.3250 6.62360 8.36303 
-16.2910 5.93930 8.35693 
-16.2560 5.25500 8.35083 
-16.2220 4.57070 8.34472 
-16.1870 3.88650 8.33862 
-16.1520 3.20220 8.33252 
-16.1180 2.51790 8.32642 
-16.0830 1.83370 8.32032 
-16.0490 1.14940 8.31421 
-16.0140 0.465103 8.30811 
-15.9790 -0.219101 8.30201 
-15.9450 -0.903397 8.29591 
-15.9100 -1.58770 8.28981 
-15.8760 -2.27200 8.28370 
-15.8410 -2.95620 8.27760 
-15.8060 -3.64050 8.27150 
-15.7720 -4.32480 8.26540 
-15.7370 -5.00900 8.25930 
-15.7030 -5.69330 8.25320 
-15.6680 -6.37760 8.24709 
-15.6340 -7.06180 8.24099 
-15.5990 -7.74610 8.23489 
-15.5640 -8.43040 8.22879 
-15.7460 -9.10730 9.19974 
-15.7120 -9.79000 9.19365 
-15.6770 -10.4726 9.18756 
-15.6430 -11.1553 9.18148 
-15.6080 -11.8380 9.17539 
-15.5740 -12.5207 9.16930 
-15.5390 -13.2034 9.16321 
-15.5050 -13.8860 9.15712 
-15.4700 -14.5687 9.15104 
-15.6530 -15.2297 10.1221 
-15.6190 -15.9108 10.1161 
-15.5840 -16.5919 10.1100 
-15.5500 -17.2730 10.1039 
-15.5150 -17.9541 10.0978 
-15.4810 -18.6352 10.0918 
-15.4460 -19.3162 10.0857 
-15.4120 -19.9973 10.0796 
-15.1600 -20.7128 9.09625 
-15.1250 -21.3955 9.09016 
-15.0910 -22.0782 9.08407 
-14.8380 -22.8000 8.10065 
-14.5850 -23.5251 7.11717 
-14.3320 -24.2533 6.13369 
-14.0790 -24.9847 5.15015 
-13.8260 -25.7193 4.16661 
-13.7910 -26.4099 4.16046 
-13.5370 -27.1493 3.17685 
-13.2830 -27.8919 2.19324 
-16.4550 25.5709 1.56331 
-16.6310 24.8050 2.53376 
-16.8070 24.0422 3.50424 
-16.9830 23.2826 4.47478 
-17.1590 22.5262 5.44532 
-17.3360 21.7730 6.41592 
-17.3010 21.0855 6.40979 
-17.4780 20.3371 7.38039 
-17.4430 19.6512 7.37428 
-17.4090 18.9654 7.36816 
-17.3740 18.2795 7.36205 
-17.3390 17.5937 7.35593 
-17.3050 16.9078 7.34981 
-17.2700 16.2219 7.34370 
-17.2350 15.5361 7.33758 
-17.2010 14.8502 7.33147 
-17.3780 14.1177 8.30225 
-17.3440 13.4334 8.29614 
-17.3090 12.7491 8.29004 
-17.2740 12.0649 8.28394 
-17.2400 11.3806 8.27784 
-17.2050 10.6963 8.27174 
-17.1710 10.0120 8.26563 
-17.1360 9.32780 8.25953 
-17.1010 8.64350 8.25343 
-17.0670 7.95920 8.24733 
-17.0320 7.27500 8.24123 
-16.9980 6.59070 8.23513 
-16.9630 5.90640 8.22902 
-16.9290 5.22220 8.22292 
-16.8940 4.53790 8.21682 
-16.8590 3.85360 8.21072 
-16.8250 3.16940 8.20462 
-16.7900 2.48510 8.19851 
-16.7560 1.80080 8.19241 
-16.7210 1.11650 8.18631 
-16.6860 0.432297 8.18021 
-16.6520 -0.251999 8.17411 
-16.6170 -0.936302 8.16800 
-16.5830 -1.62050 8.16190 
-16.5480 -2.30480 8.15580 
-16.5130 -2.98910 8.14970 
-16.4790 -3.67330 8.14360 
-16.4440 -4.35760 8.13750 
-16.4100 -5.04190 8.13140 
-16.3750 -5.72610 8.12529 
