ply
format ascii 1.0
comment Created by CloudCompare v2.11 alpha (Anoia)
comment Created 9/27/19 9:49 PM
obj_info Generated by CloudCompare!
element vertex 1551
property float x
property float y
property float z
end_header
0.023213 0.038838 0.00728327 
0.023249 0.038139 0.00727704 
0.023284 0.03744 0.00727081 
0.023319 0.036742 0.00726458 
0.023355 0.036043 0.00725835 
0.02339 0.035345 0.00725212 
0.023425 0.034646 0.00724589 
0.02346 0.033947 0.00723966 
0.023496 0.033249 0.00723343 
0.023531 0.03255 0.00722721 
0.023566 0.0318517 0.00722098 
0.023602 0.0311531 0.00721475 
0.023336 0.0303716 0.00816785 
0.023371 0.0296746 0.00816163 
0.023406 0.0289776 0.00815542 
0.023441 0.0282806 0.0081492 
0.023477 0.0275836 0.00814299 
0.023512 0.0268866 0.00813677 
0.023547 0.0261896 0.00813056 
0.023582 0.0254926 0.00812434 
0.023618 0.0247956 0.00811812 
0.023653 0.0240986 0.00811191 
0.023688 0.0234016 0.00810569 
0.023723 0.0227046 0.00809948 
0.023759 0.0220076 0.00809326 
0.023794 0.0213106 0.00808705 
0.023829 0.0206136 0.00808083 
0.023864 0.0199166 0.00807462 
0.023899 0.0192196 0.0080684 
0.023935 0.0185226 0.00806219 
0.02397 0.0178256 0.00805597 
0.023702 0.0170759 0.00900939 
0.023737 0.0163805 0.00900318 
0.023773 0.0156851 0.00899698 
0.023808 0.0149896 0.00899078 
0.023843 0.0142942 0.00898458 
0.023878 0.0135988 0.00897838 
0.023913 0.0129034 0.00897218 
0.023948 0.012208 0.00896598 
0.023983 0.0115126 0.00895978 
0.024019 0.0108172 0.00895358 
0.024054 0.0101218 0.00894737 
0.024089 0.0094264 0.00894117 
0.024124 0.008731 0.00893497 
0.024159 0.0080356 0.00892877 
0.024194 0.0073401 0.00892257 
0.02423 0.0066447 0.00891637 
0.024265 0.0059493 0.00891017 
0.0243 0.0052539 0.00890397 
0.024335 0.0045585 0.00889776 
0.02437 0.0038631 0.00889156 
0.024405 0.0031677 0.00888536 
0.02444 0.0024723 0.00887916 
0.024476 0.0017769 0.00887296 
0.024511 0.0010815 0.00886676 
0.024546 0.000386101 0.00886056 
0.024581 -0.000309303 0.00885436 
0.024616 -0.0010048 0.00884816 
0.024651 -0.0017002 0.00884195 
0.024687 -0.0023956 0.00883575 
0.024722 -0.003091 0.00882955 
0.024757 -0.0037864 0.00882335 
0.024792 -0.0044818 0.00881715 
0.024827 -0.0051772 0.00881095 
0.024862 -0.0058726 0.00880475 
0.024897 -0.006568 0.00879855 
0.024933 -0.0072634 0.00879235 
0.024968 -0.0079588 0.00878614 
0.025003 -0.0086543 0.00877994 
0.025038 -0.0093497 0.00877374 
0.025073 -0.0100451 0.00876754 
0.025108 -0.0107405 0.00876134 
0.025144 -0.0114359 0.00875514 
0.025179 -0.0121313 0.00874894 
0.025214 -0.0128267 0.00874274 
0.025249 -0.0135221 0.00873654 
0.024978 -0.0141986 0.00969057 
0.025013 -0.0148924 0.00968439 
0.025048 -0.0155862 0.0096782 
0.025083 -0.0162801 0.00967201 
0.025118 -0.0169739 0.00966583 
0.025153 -0.0176677 0.00965964 
0.025188 -0.0183615 0.00965345 
0.025223 -0.0190553 0.00964726 
0.025258 -0.0197491 0.00964108 
0.025293 -0.020443 0.00963489 
0.025328 -0.0211368 0.0096287 
0.025363 -0.0218306 0.00962252 
0.025399 -0.0225244 0.00961633 
0.025126 -0.0231786 0.0105706 
0.025161 -0.0238709 0.0105644 
0.025196 -0.0245631 0.0105582 
0.025231 -0.0252553 0.010552 
0.025266 -0.0259475 0.0105459 
0.025301 -0.0266398 0.0105397 
0.025336 -0.027332 0.0105335 
0.025371 -0.0280242 0.0105274 
0.025406 -0.0287164 0.0105212 
0.025441 -0.0294087 0.010515 
0.025476 -0.0301009 0.0105088 
0.025511 -0.0307931 0.0105027 
0.025546 -0.0314853 0.0104965 
0.025581 -0.0321776 0.0104903 
0.025616 -0.0328698 0.0104841 
0.025651 -0.033562 0.010478 
0.025686 -0.0342543 0.0104718 
0.025721 -0.0349465 0.0104656 
0.025756 -0.0356387 0.0104595 
0.025791 -0.0363309 0.0104533 
0.025826 -0.0370232 0.0104471 
0.025861 -0.0377154 0.0104409 
0.026205 -0.0384822 0.00947403 
0.02624 -0.039176 0.00946784 
0.026275 -0.0398699 0.00946166 
0.02662 -0.0406431 0.00849469 
0.026965 -0.0414194 0.00752767 
0.02731 -0.042199 0.00656064 
0.027965 -0.0430659 0.00463274 
0.02862 -0.0439392 0.00270479 
0.023926 0.047205 0.00146532 
0.023366 0.046261 0.00337766 
0.023103 0.04544 0.00433071 
0.022841 0.044622 0.00528381 
0.022578 0.043807 0.00623691 
0.022613 0.043107 0.00623067 
0.02235 0.042297 0.00718384 
0.022386 0.041598 0.00717761 
0.022421 0.0409 0.00717138 
0.022456 0.040201 0.00716515 
0.022492 0.039503 0.00715892 
0.022527 0.038804 0.00715269 
0.022562 0.038105 0.00714646 
0.022598 0.037407 0.00714023 
0.022334 0.036611 0.0080935 
0.022668 0.03601 0.00712777 
0.022703 0.035311 0.00712154 
0.022739 0.034613 0.00711531 
0.022475 0.033823 0.00806864 
0.02251 0.033126 0.00806243 
0.022545 0.032429 0.00805621 
0.02258 0.0317321 0.00805 
0.022616 0.0310351 0.00804378 
0.022651 0.0303381 0.00803757 
0.022686 0.0296411 0.00803135 
0.022721 0.0289441 0.00802514 
0.022757 0.0282471 0.00801892 
0.022792 0.0275501 0.0080127 
0.022827 0.0268531 0.00800649 
0.022862 0.0261561 0.00800027 
0.022897 0.0254591 0.00799406 
0.022933 0.0247621 0.00798784 
0.022968 0.0240651 0.00798163 
0.023003 0.0233681 0.00797541 
0.023038 0.0226711 0.0079692 
0.023074 0.0219741 0.00796298 
0.023109 0.0212771 0.00795677 
0.023144 0.0205801 0.00795055 
0.023179 0.0198831 0.00794434 
0.022914 0.0191287 0.008898 
0.022949 0.0184333 0.0088918 
0.022984 0.0177379 0.0088856 
0.023019 0.0170425 0.0088794 
0.023054 0.0163471 0.0088732 
0.023089 0.0156517 0.008867 
0.023124 0.0149563 0.0088608 
0.02316 0.0142608 0.0088546 
0.023195 0.0135654 0.0088484 
0.02323 0.01287 0.00884219 
0.023265 0.0121746 0.00883599 
0.0233 0.0114792 0.00882979 
0.023335 0.0107838 0.00882359 
0.023371 0.0100884 0.00881739 
0.023406 0.009393 0.00881119 
0.023441 0.0086976 0.00880499 
0.023476 0.0080022 0.00879879 
0.023511 0.0073068 0.00879259 
0.023546 0.0066114 0.00878638 
0.023279 0.0058888 0.00974031 
0.023314 0.005195 0.00973412 
0.023349 0.0045012 0.00972793 
0.023384 0.0038073 0.00972175 
0.023419 0.0031135 0.00971556 
0.023454 0.0024197 0.00970937 
0.023489 0.0017259 0.00970319 
0.023524 0.0010321 0.009697 
0.023559 0.000338203 0.00969081 
0.023594 -0.000355598 0.00968463 
0.02363 -0.0010494 0.00967844 
0.023665 -0.0017432 0.00967225 
0.0237 -0.002437 0.00966607 
0.023735 -0.0031308 0.00965988 
0.02377 -0.0038247 0.00965369 
0.023805 -0.0045185 0.0096475 
0.02384 -0.0052123 0.00964132 
0.023875 -0.0059061 0.00963513 
0.02391 -0.0065999 0.00962894 
0.023945 -0.0072937 0.00962276 
0.02398 -0.0079876 0.00961657 
0.024015 -0.0086814 0.00961038 
0.02405 -0.0093752 0.0096042 
0.024085 -0.010069 0.00959801 
0.024121 -0.0107628 0.00959182 
0.024156 -0.0114566 0.00958564 
0.024191 -0.0121505 0.00957945 
0.024226 -0.0128443 0.00957326 
0.024261 -0.0135381 0.00956707 
0.024296 -0.0142319 0.00956089 
0.024331 -0.0149257 0.0095547 
0.024366 -0.0156195 0.00954851 
0.024401 -0.0163134 0.00954233 
0.024436 -0.0170072 0.00953614 
0.024471 -0.017701 0.00952995 
0.024506 -0.0183948 0.00952376 
0.024541 -0.0190886 0.00951758 
0.024577 -0.0197825 0.00951139 
0.024612 -0.0204763 0.0095052 
0.024647 -0.0211701 0.00949902 
0.024376 -0.0218274 0.0104535 
0.024411 -0.0225196 0.0104473 
0.024446 -0.0232119 0.0104412 
0.024481 -0.0239041 0.010435 
0.024516 -0.0245963 0.0104288 
0.024551 -0.0252885 0.0104227 
0.024586 -0.0259808 0.0104165 
0.024621 -0.026673 0.0104103 
0.024656 -0.0273652 0.0104041 
0.024691 -0.0280574 0.010398 
0.024726 -0.0287497 0.0103918 
0.024761 -0.0294419 0.0103856 
0.024796 -0.0301341 0.0103794 
0.024831 -0.0308263 0.0103733 
0.024866 -0.0315186 0.0103671 
0.024901 -0.0322108 0.0103609 
0.024936 -0.032903 0.0103548 
0.024971 -0.0335953 0.0103486 
0.025006 -0.0342875 0.0103424 
0.025041 -0.0349797 0.0103362 
0.025076 -0.0356719 0.0103301 
0.025111 -0.0363642 0.0103239 
0.025146 -0.0370564 0.0103177 
0.025181 -0.0377486 0.0103115 
0.025216 -0.0384408 0.0103054 
0.025559 -0.0392093 0.00933816 
0.025594 -0.0399032 0.00933197 
0.025937 -0.0406764 0.00836471 
0.025972 -0.0413718 0.0083585 
0.026623 -0.0422325 0.00643006 
0.027275 -0.0430996 0.00450157 
0.027927 -0.043973 0.00257302 
0.022934 0.047052 0.00229255 
0.022377 0.04611 0.00420551 
0.022116 0.04529 0.00515889 
0.021855 0.044474 0.00611228 
0.02189 0.043774 0.00610603 
0.021629 0.042962 0.00705949 
0.021664 0.042263 0.00705326 
0.021699 0.041565 0.00704703 
0.021735 0.040866 0.0070408 
0.02177 0.040168 0.00703457 
0.021805 0.039469 0.00702834 
0.021543 0.038669 0.00798187 
0.021578 0.037972 0.00797565 
0.021614 0.037275 0.00796944 
0.021649 0.036578 0.00796322 
0.021684 0.035881 0.00795701 
0.021719 0.035184 0.00795079 
0.021755 0.034487 0.00794458 
0.02179 0.03379 0.00793836 
0.021825 0.033093 0.00793215 
0.02186 0.032396 0.00792593 
0.021896 0.0316986 0.00791972 
0.021931 0.0310016 0.0079135 
0.021966 0.0303046 0.00790728 
0.022001 0.0296077 0.00790107 
0.022036 0.0289106 0.00789485 
0.022072 0.0282136 0.00788864 
0.022107 0.0275167 0.00788242 
0.022142 0.0268196 0.00787621 
0.022177 0.0261227 0.00786999 
0.022213 0.0254256 0.00786378 
0.022248 0.0247287 0.00785756 
0.022283 0.0240316 0.00785135 
0.022318 0.0233346 0.00784513 
0.022354 0.0226376 0.00783892 
0.022389 0.0219407 0.0078327 
0.022424 0.0212437 0.00782648 
0.022459 0.0205466 0.00782027 
0.022495 0.0198496 0.00781405 
0.02223 0.0190953 0.00876802 
0.022265 0.0183999 0.00876182 
0.022301 0.0177045 0.00875562 
0.022336 0.0170091 0.00874942 
0.022371 0.0163137 0.00874322 
0.022406 0.0156183 0.00873701 
0.022441 0.0149229 0.00873081 
0.022476 0.0142275 0.00872461 
0.022511 0.0135321 0.00871841 
0.022547 0.0128367 0.00871221 
0.022582 0.0121412 0.00870601 
0.022617 0.0114458 0.00869981 
0.022652 0.0107504 0.00869361 
0.022687 0.010055 0.00868741 
0.022422 0.0093246 0.00964156 
0.022457 0.0086308 0.00963537 
0.022492 0.0079369 0.00962918 
0.022527 0.0072431 0.009623 
0.022562 0.0065493 0.00961681 
0.022597 0.0058555 0.00961062 
0.022632 0.0051617 0.00960443 
0.022667 0.0044678 0.00959825 
0.022702 0.003774 0.00959206 
0.022737 0.0030802 0.00958587 
0.022772 0.0023864 0.00957969 
0.022808 0.0016926 0.0095735 
0.022843 0.000998802 0.00956731 
0.022878 0.000304901 0.00956112 
0.022913 -0.000388901 0.00955494 
0.022948 -0.0010827 0.00954875 
0.022983 -0.0017765 0.00954256 
0.023018 -0.0024703 0.00953638 
0.023053 -0.0031641 0.00953019 
0.023088 -0.003858 0.009524 
0.023123 -0.0045518 0.00951782 
0.023158 -0.0052456 0.00951163 
0.023193 -0.0059394 0.00950544 
0.023228 -0.0066332 0.00949926 
0.023264 -0.007327 0.00949307 
0.023299 -0.0080209 0.00948688 
0.023334 -0.0087147 0.00948069 
0.023369 -0.0094085 0.00947451 
0.023404 -0.0101023 0.00946832 
0.023439 -0.0107961 0.00946213 
0.023474 -0.0114899 0.00945595 
0.023509 -0.0121838 0.00944976 
0.023544 -0.0128776 0.00944357 
0.023579 -0.0135714 0.00943739 
0.023614 -0.0142652 0.0094312 
0.023649 -0.014959 0.00942501 
0.023684 -0.0156529 0.00941883 
0.023719 -0.0163467 0.00941264 
0.023755 -0.0170405 0.00940645 
0.02379 -0.0177343 0.00940026 
0.023825 -0.0184281 0.00939408 
0.02386 -0.0191219 0.00938789 
0.023895 -0.0198158 0.0093817 
0.02393 -0.0205096 0.00937552 
0.023661 -0.0211684 0.0103303 
0.023696 -0.0218606 0.0103241 
0.023731 -0.0225529 0.010318 
0.023766 -0.0232451 0.0103118 
0.023801 -0.0239373 0.0103056 
0.023836 -0.0246295 0.0102994 
0.023871 -0.0253218 0.0102933 
0.023906 -0.026014 0.0102871 
0.023941 -0.0267062 0.0102809 
0.023976 -0.0273984 0.0102748 
0.024011 -0.0280907 0.0102686 
0.024046 -0.0287829 0.0102624 
0.024081 -0.0294751 0.0102562 
0.024116 -0.0301674 0.0102501 
0.024151 -0.0308596 0.0102439 
0.024186 -0.0315518 0.0102377 
0.024221 -0.032244 0.0102315 
0.024256 -0.0329363 0.0102254 
0.024291 -0.0336285 0.0102192 
0.024326 -0.0343207 0.010213 
0.024361 -0.0350129 0.0102069 
0.024396 -0.0357052 0.0102007 
0.024431 -0.0363974 0.0101945 
0.024466 -0.0370896 0.0101883 
0.024501 -0.0377818 0.0101822 
0.024536 -0.0384741 0.010176 
0.024877 -0.0392426 0.00920847 
0.024912 -0.0399365 0.00920228 
0.024947 -0.0406303 0.00919609 
0.025289 -0.0414052 0.00822852 
0.02563 -0.0421834 0.00726089 
0.026279 -0.043049 0.00533181 
0.026928 -0.043921 0.00340268 
0.02224 0.047018 0.00216049 
0.021686 0.046076 0.00407404 
0.021426 0.045257 0.00502772 
0.021167 0.04444 0.0059814 
0.021202 0.04374 0.00597516 
0.020942 0.042929 0.00692891 
0.020978 0.04223 0.00692268 
0.021013 0.041531 0.00691645 
0.020753 0.040726 0.00787023 
0.020788 0.040029 0.00786402 
0.020823 0.039332 0.0078578 
0.020858 0.038635 0.00785159 
0.020894 0.037938 0.00784537 
0.020929 0.037241 0.00783916 
0.020964 0.036544 0.00783294 
0.020999 0.035847 0.00782673 
0.021035 0.03515 0.00782051 
0.02107 0.034453 0.00781429 
0.021105 0.033756 0.00780808 
0.02114 0.033059 0.00780186 
0.021175 0.032362 0.00779565 
0.021211 0.0316652 0.00778943 
0.021246 0.0309682 0.00778322 
0.021281 0.0302712 0.007777 
0.021316 0.0295742 0.00777079 
0.021352 0.0288772 0.00776457 
0.021387 0.0281802 0.00775836 
0.021422 0.0274832 0.00775214 
0.021457 0.0267862 0.00774593 
0.021493 0.0260892 0.00773971 
0.021528 0.0253922 0.0077335 
0.021563 0.0246952 0.00772728 
0.021598 0.0239982 0.00772106 
0.021634 0.0233012 0.00771485 
0.021669 0.0226042 0.00770863 
0.021704 0.0219072 0.00770242 
0.021739 0.0212102 0.0076962 
0.021774 0.0205132 0.00768999 
0.021512 0.0197574 0.00864424 
0.021547 0.019062 0.00863804 
0.021582 0.0183665 0.00863184 
0.021617 0.0176711 0.00862563 
0.021652 0.0169757 0.00861943 
0.021688 0.0162803 0.00861323 
0.021723 0.0155849 0.00860703 
0.021758 0.0148895 0.00860083 
0.021793 0.0141941 0.00859463 
0.021828 0.0134987 0.00858843 
0.021863 0.0128033 0.00858223 
0.021898 0.0121079 0.00857603 
0.021635 0.0113727 0.00953043 
0.02167 0.0106789 0.00952424 
0.021705 0.0099851 0.00951806 
0.02174 0.0092913 0.00951187 
0.021775 0.0085975 0.00950568 
0.02181 0.0079036 0.0094995 
0.021845 0.0072098 0.00949331 
0.02188 0.006516 0.00948712 
0.021915 0.0058222 0.00948093 
0.02195 0.0051284 0.00947475 
0.021986 0.0044345 0.00946856 
0.022021 0.0037407 0.00946237 
0.022056 0.0030469 0.00945619 
0.022091 0.0023531 0.00945 
0.022126 0.0016593 0.00944381 
0.022161 0.0009655 0.00943763 
0.022196 0.000271599 0.00943144 
0.022231 -0.000422203 0.00942525 
0.022266 -0.001116 0.00941906 
0.022301 -0.0018098 0.00941288 
0.022336 -0.0025036 0.00940669 
0.022371 -0.0031974 0.0094005 
0.022406 -0.0038913 0.00939432 
0.022441 -0.0045851 0.00938813 
0.022477 -0.0052789 0.00938194 
0.022512 -0.0059727 0.00937576 
0.022547 -0.0066665 0.00936957 
0.022582 -0.0073604 0.00936338 
0.022617 -0.0080542 0.00935719 
0.022652 -0.008748 0.00935101 
0.022687 -0.0094418 0.00934482 
0.022722 -0.0101356 0.00933863 
0.022757 -0.0108294 0.00933245 
0.022792 -0.0115233 0.00932626 
0.022827 -0.0122171 0.00932007 
0.022862 -0.0129109 0.00931389 
0.022897 -0.0136047 0.0093077 
0.022933 -0.0142985 0.00930151 
0.022968 -0.0149923 0.00929533 
0.023003 -0.0156862 0.00928914 
0.023038 -0.01638 0.00928295 
0.023073 -0.0170738 0.00927676 
0.023108 -0.0177676 0.00927058 
0.023143 -0.0184614 0.00926439 
0.023178 -0.0191552 0.0092582 
0.022911 -0.0198172 0.0102133 
0.022946 -0.0205094 0.0102071 
0.022981 -0.0212016 0.0102009 
0.023016 -0.0218939 0.0101947 
0.023051 -0.0225861 0.0101886 
0.023086 -0.0232783 0.0101824 
0.023121 -0.0239705 0.0101762 
0.023156 -0.0246628 0.0101701 
0.023191 -0.025355 0.0101639 
0.023226 -0.0260472 0.0101577 
0.023261 -0.0267395 0.0101515 
0.023296 -0.0274317 0.0101454 
0.023331 -0.0281239 0.0101392 
0.023366 -0.0288161 0.010133 
0.023401 -0.0295084 0.0101268 
0.023436 -0.0302006 0.0101207 
0.023471 -0.0308928 0.0101145 
0.023506 -0.031585 0.0101083 
0.023541 -0.0322773 0.0101022 
0.023576 -0.0329695 0.010096 
0.023611 -0.0336617 0.0100898 
0.023645 -0.0343539 0.0100836 
0.023681 -0.0350462 0.0100775 
0.023715 -0.0357384 0.0100713 
0.02375 -0.0364306 0.0100651 
0.023785 -0.0371228 0.0100589 
0.02382 -0.0378151 0.0100528 
0.023855 -0.0385073 0.0100466 
0.02389 -0.0391995 0.0100404 
0.02423 -0.0399698 0.00907259 
0.024265 -0.0406636 0.00906641 
0.0243 -0.0413574 0.00906022 
0.024945 -0.0422168 0.00713061 
0.025591 -0.0430826 0.00520093 
0.025932 -0.0438688 0.00423296 
0.021803 0.047811 0.00107454 
0.021252 0.046865 0.00298864 
0.020701 0.045925 0.0049028 
0.020443 0.045107 0.00585677 
0.020185 0.044292 0.00681079 
0.02022 0.043594 0.00680456 
0.020256 0.042895 0.00679833 
0.020291 0.042196 0.0067921 
0.020033 0.04139 0.00774617 
0.020068 0.040693 0.00773995 
0.020103 0.039996 0.00773374 
0.020138 0.039299 0.00772752 
0.020174 0.038602 0.0077213 
0.020209 0.037905 0.00771509 
0.020244 0.037208 0.00770887 
0.020279 0.036511 0.00770266 
0.020314 0.035814 0.00769644 
0.02035 0.035117 0.00769023 
0.020385 0.03442 0.00768401 
0.02042 0.033723 0.0076778 
0.020455 0.033026 0.00767158 
0.020491 0.032329 0.00766537 
0.020526 0.0316317 0.00765915 
0.020561 0.0309347 0.00765294 
0.020596 0.0302377 0.00764672 
0.020336 0.0294597 0.00860107 
0.020372 0.0287643 0.00859487 
0.020407 0.0280689 0.00858867 
0.020442 0.0273735 0.00858247 
0.020477 0.0266781 0.00857626 
0.020512 0.0259827 0.00857006 
0.020547 0.0252873 0.00856386 
0.020582 0.0245918 0.00855766 
0.020618 0.0238964 0.00855146 
0.020949 0.0232677 0.00758457 
0.020984 0.0225707 0.00757835 
0.020723 0.0218102 0.00853286 
0.020758 0.0211148 0.00852666 
0.020793 0.0204194 0.00852045 
0.020829 0.019724 0.00851425 
0.020864 0.0190286 0.00850805 
0.020899 0.0183332 0.00850185 
0.020934 0.0176377 0.00849565 
0.020969 0.0169423 0.00848945 
0.021004 0.0162469 0.00848325 
0.021039 0.0155515 0.00847705 
0.021075 0.0148561 0.00847084 
0.02111 0.0141607 0.00846464 
0.021145 0.0134653 0.00845844 
0.02118 0.0127699 0.00845224 
0.021215 0.0120745 0.00844604 
0.020953 0.0113394 0.00940074 
0.020988 0.0106456 0.00939456 
0.021023 0.0099518 0.00938837 
0.021058 0.009258 0.00938218 
0.021093 0.0085641 0.00937599 
0.021128 0.0078703 0.00936981 
0.021164 0.0071765 0.00936362 
0.021199 0.0064827 0.00935743 
0.021234 0.0057889 0.00935125 
0.021269 0.0050951 0.00934506 
0.021304 0.0044012 0.00933887 
0.021339 0.0037074 0.00933269 
0.021374 0.0030136 0.0093265 
0.021409 0.0023198 0.00932031 
0.021444 0.001626 0.00931413 
0.021479 0.000932198 0.00930794 
0.021514 0.000238297 0.00930175 
0.021549 -0.000455498 0.00929556 
0.021584 -0.0011493 0.00928938 
0.021321 -0.0018525 0.0102444 
0.021356 -0.0025448 0.0102382 
0.021391 -0.003237 0.010232 
0.021725 -0.0039246 0.00926463 
0.02176 -0.0046184 0.00925844 
0.021795 -0.0053122 0.00925226 
0.02183 -0.006006 0.00924607 
0.021865 -0.0066998 0.00923988 
0.0219 -0.0073937 0.00923369 
0.021935 -0.0080875 0.00922751 
0.02197 -0.0087813 0.00922132 
0.022005 -0.0094751 0.00921513 
0.02204 -0.0101689 0.00920895 
0.022075 -0.0108627 0.00920276 
0.022111 -0.0115566 0.00919657 
0.022146 -0.0122504 0.00919039 
0.022181 -0.0129442 0.0091842 
0.022216 -0.013638 0.00917801 
0.022251 -0.0143318 0.00917182 
0.022286 -0.0150256 0.00916564 
0.022321 -0.0157195 0.00915945 
0.022356 -0.0164133 0.00915326 
0.022391 -0.0171071 0.00914708 
0.022426 -0.0178009 0.00914089 
0.022161 -0.018466 0.0100962 
0.022196 -0.0191582 0.01009 
0.02223 -0.0198504 0.0100839 
0.022266 -0.0205426 0.0100777 
0.022301 -0.0212349 0.0100715 
0.022336 -0.0219271 0.0100654 
0.02237 -0.0226193 0.0100592 
0.022405 -0.0233115 0.010053 
0.02244 -0.0240038 0.0100468 
0.022475 -0.024696 0.0100407 
0.02251 -0.0253882 0.0100345 
0.022545 -0.0260805 0.0100283 
0.02258 -0.0267727 0.0100221 
0.022615 -0.0274649 0.010016 
0.02265 -0.0281571 0.0100098 
0.022685 -0.0288494 0.0100036 
0.02272 -0.0295416 0.00999745 
0.022755 -0.0302338 0.00999128 
0.02279 -0.030926 0.00998511 
0.022825 -0.0316183 0.00997894 
0.02286 -0.0323105 0.00997276 
0.022895 -0.0330027 0.00996659 
0.02293 -0.0336949 0.00996042 
0.022965 -0.0343872 0.00995424 
0.023 -0.0350794 0.00994807 
0.023035 -0.0357716 0.0099419 
0.02307 -0.0364638 0.00993573 
0.023105 -0.0371561 0.00992955 
0.02314 -0.0378483 0.00992338 
0.023175 -0.0385405 0.00991721 
0.02321 -0.0392327 0.00991103 
0.023245 -0.039925 0.00990486 
0.023584 -0.0406969 0.00893672 
0.023619 -0.0413907 0.00893053 
0.023957 -0.0421674 0.00796235 
0.024599 -0.0430317 0.0060321 
0.025242 -0.0439024 0.00410179 
0.020268 0.046712 0.00381737 
0.01972 0.045773 0.00573214 
0.019755 0.045073 0.00572589 
0.019499 0.044259 0.00668021 
0.019534 0.04356 0.00667398 
0.019569 0.042861 0.00666775 
0.019313 0.042053 0.0076221 
0.019348 0.041356 0.00761588 
0.019383 0.040659 0.00760967 
0.019418 0.039962 0.00760345 
0.019453 0.039265 0.00759724 
0.019196 0.038467 0.0085517 
0.019231 0.037771 0.0085455 
0.019266 0.037076 0.0085393 
0.019302 0.03638 0.0085331 
0.019337 0.035685 0.0085269 
0.019372 0.03499 0.00852069 
0.019407 0.034294 0.00851449 
0.019442 0.033599 0.00850829 
0.019477 0.032903 0.00850209 
0.019513 0.032208 0.00849589 
0.019548 0.0315126 0.00848969 
0.019583 0.0308171 0.00848349 
0.019618 0.0301217 0.00847729 
0.019653 0.0294263 0.00847108 
0.019688 0.0287309 0.00846488 
0.019723 0.0280355 0.00845868 
0.019759 0.0273401 0.00845248 
0.019794 0.0266447 0.00844628 
0.019829 0.0259493 0.00844008 
0.019864 0.0252539 0.00843388 
0.019899 0.0245585 0.00842768 
0.019934 0.0238631 0.00842148 
0.01997 0.0231676 0.00841527 
0.020005 0.0224722 0.00840907 
0.02004 0.0217768 0.00840287 
0.020075 0.0210814 0.00839667 
0.02011 0.020386 0.00839047 
0.020145 0.0196906 0.00838427 
0.02018 0.0189952 0.00837807 
0.020216 0.0182998 0.00837187 
0.020251 0.0176044 0.00836566 
0.020286 0.016909 0.00835946 
0.020321 0.0162136 0.00835326 
0.020356 0.0155182 0.00834706 
0.020391 0.0148227 0.00834086 
0.020427 0.0141273 0.00833466 
0.020462 0.0134319 0.00832846 
0.020497 0.0127365 0.00832226 
0.020532 0.0120411 0.00831606 
0.020271 0.0113061 0.00927106 
0.020306 0.0106123 0.00926487 
0.020342 0.0099185 0.00925868 
0.020377 0.0092247 0.00925249 
0.020412 0.0085308 0.00924631 
0.020447 0.007837 0.00924012 
0.020482 0.0071432 0.00923393 
0.020517 0.0064494 0.00922775 
0.020552 0.0057556 0.00922156 
0.020587 0.0050618 0.00921537 
0.020622 0.0043679 0.00920919 
0.020657 0.0036741 0.009203 
0.020692 0.0029803 0.00919681 
0.020727 0.0022865 0.00919063 
0.020762 0.0015927 0.00918444 
0.020798 0.000898804 0.00917825 
0.020536 0.000190903 0.0101335 
0.020571 -0.000501297 0.0101273 
0.020606 -0.0011935 0.0101211 
0.020641 -0.0018858 0.010115 
0.020676 -0.002578 0.0101088 
0.020711 -0.0032702 0.0101026 
0.020746 -0.0039624 0.0100965 
0.020781 -0.0046547 0.0100903 
0.020816 -0.0053469 0.0100841 
0.02085 -0.0060391 0.0100779 
0.020886 -0.0067313 0.0100718 
0.020921 -0.0074236 0.0100656 
0.021253 -0.0081208 0.00909782 
0.021289 -0.0088146 0.00909163 
0.021324 -0.0095084 0.00908545 
0.021359 -0.0102022 0.00907926 
0.021394 -0.010896 0.00907307 
0.021429 -0.0115899 0.00906689 
0.021464 -0.0122837 0.0090607 
0.021499 -0.0129775 0.00905451 
0.021534 -0.0136713 0.00904832 
0.021569 -0.0143651 0.00904214 
0.021604 -0.0150589 0.00903595 
0.021639 -0.0157528 0.00902977 
0.021674 -0.0164466 0.00902358 
0.02141 -0.0171147 0.00997917 
0.021445 -0.017807 0.009973 
0.02148 -0.0184992 0.00996683 
0.021515 -0.0191914 0.00996066 
0.02155 -0.0198836 0.00995448 
0.021585 -0.0205759 0.00994831 
0.02162 -0.0212681 0.00994214 
0.021655 -0.0219603 0.00993596 
0.02169 -0.0226525 0.00992979 
0.021725 -0.0233448 0.00992362 
0.02176 -0.024037 0.00991745 
0.021795 -0.0247292 0.00991127 
0.02183 -0.0254215 0.0099051 
0.021865 -0.0261137 0.00989893 
0.0219 -0.0268059 0.00989276 
0.021935 -0.0274981 0.00988658 
0.02197 -0.0281904 0.00988041 
0.022005 -0.0288826 0.00987424 
0.02204 -0.0295748 0.00986806 
0.022075 -0.030267 0.00986189 
0.02211 -0.0309593 0.00985572 
0.022145 -0.0316515 0.00984955 
0.02218 -0.0323437 0.00984337 
0.022215 -0.0330359 0.0098372 
0.02225 -0.0337282 0.00983103 
0.022285 -0.0344204 0.00982485 
0.02232 -0.0351126 0.00981868 
0.022355 -0.0358048 0.00981251 
0.02239 -0.0364971 0.00980634 
0.022425 -0.0371893 0.00980016 
0.02246 -0.0378815 0.00979399 
0.022495 -0.0385738 0.00978782 
0.02253 -0.039266 0.00978164 
0.022565 -0.0399582 0.00977547 
0.0226 -0.0406504 0.0097693 
0.022937 -0.041424 0.00880085 
0.023274 -0.0422008 0.00783237 
0.023913 -0.0430653 0.00590152 
0.024552 -0.0439361 0.00397061 
0.020121 0.047623 0.00177059 
0.019577 0.046678 0.00368589 
0.019032 0.04574 0.00560126 
0.018777 0.044924 0.00655586 
0.018812 0.044225 0.00654963 
0.018848 0.043527 0.0065434 
0.018592 0.042717 0.00749803 
0.018628 0.04202 0.00749182 
0.018663 0.041323 0.0074856 
0.018698 0.040626 0.00747939 
0.018443 0.039824 0.00843412 
0.018478 0.039129 0.00842792 
0.018513 0.038433 0.00842172 
0.018548 0.037738 0.00841551 
0.018583 0.037042 0.00840931 
0.018618 0.036347 0.00840311 
0.018653 0.035652 0.00839691 
0.018689 0.034956 0.00839071 
0.018724 0.034261 0.00838451 
0.018759 0.033565 0.00837831 
0.018794 0.03287 0.00837211 
0.018829 0.032175 0.0083659 
0.018864 0.0314792 0.0083597 
0.0189 0.0307838 0.0083535 
0.018935 0.0300883 0.0083473 
0.01897 0.0293929 0.0083411 
0.019005 0.0286975 0.0083349 
0.01904 0.0280021 0.0083287 
0.019075 0.0273067 0.0083225 
0.01911 0.0266113 0.0083163 
0.019146 0.0259159 0.00831009 
0.019181 0.0252205 0.00830389 
0.019216 0.0245251 0.00829769 
0.019251 0.0238297 0.00829149 
0.019286 0.0231343 0.00828529 
0.019321 0.0224389 0.00827909 
0.019357 0.0217434 0.00827289 
0.019392 0.021048 0.00826669 
0.019427 0.0203526 0.00826048 
0.019462 0.0196572 0.00825428 
0.019497 0.0189618 0.00824808 
0.019532 0.0182664 0.00824188 
0.019567 0.017571 0.00823568 
0.019603 0.0168756 0.00822948 
0.019638 0.0161802 0.00822328 
0.019673 0.0154848 0.00821708 
0.019708 0.0147894 0.00821088 
0.019743 0.0140939 0.00820467 
0.019778 0.0133985 0.00819847 
0.019814 0.0127031 0.00819227 
0.019849 0.0120077 0.00818607 
0.01959 0.0112728 0.00914137 
0.019625 0.010579 0.00913518 
0.01966 0.0098852 0.00912899 
0.019695 0.0091914 0.00912281 
0.01973 0.0084975 0.00911662 
0.019765 0.0078037 0.00911043 
0.0198 0.0071099 0.00910425 
0.019835 0.0064161 0.00909806 
0.01987 0.0057223 0.00909187 
0.019905 0.0050285 0.00908569 
0.01994 0.0043346 0.0090795 
0.019976 0.0036408 0.00907331 
0.020011 0.002947 0.00906713 
0.020046 0.0022532 0.00906094 
0.019785 0.0015421 0.0100164 
0.01982 0.000849899 0.0100103 
0.019855 0.0001577 0.0100041 
0.01989 -0.0005345 0.00999793 
0.019925 -0.0012268 0.00999176 
0.01996 -0.001919 0.00998559 
0.019995 -0.0026112 0.00997941 
0.02003 -0.0033035 0.00997324 
0.020065 -0.0039957 0.00996707 
0.0201 -0.0046879 0.00996089 
0.020135 -0.0053801 0.00995472 
0.02017 -0.0060723 0.00994855 
0.020205 -0.0067646 0.00994238 
0.02024 -0.0074568 0.0099362 
0.020275 -0.008149 0.00993003 
0.02031 -0.0088413 0.00992386 
0.020345 -0.0095335 0.00991768 
0.02038 -0.0102257 0.00991151 
0.020415 -0.0109179 0.00990534 
0.02045 -0.0116102 0.00989917 
0.020485 -0.0123024 0.00989299 
0.02052 -0.0129946 0.00988682 
0.020555 -0.0136868 0.00988065 
0.02059 -0.0143791 0.00987448 
0.020625 -0.0150713 0.0098683 
0.02066 -0.0157635 0.00986213 
0.020695 -0.0164557 0.00985596 
0.02073 -0.017148 0.00984978 
0.020765 -0.0178402 0.00984361 
0.0208 -0.0185324 0.00983744 
0.020835 -0.0192246 0.00983127 
0.02087 -0.0199169 0.00982509 
0.020905 -0.0206091 0.00981892 
0.02094 -0.0213013 0.00981275 
0.020975 -0.0219936 0.00980657 
0.02101 -0.0226858 0.0098004 
0.021045 -0.023378 0.00979423 
0.02108 -0.0240702 0.00978806 
0.021115 -0.0247625 0.00978188 
0.02115 -0.0254547 0.00977571 
0.021185 -0.0261469 0.00976954 
0.02122 -0.0268391 0.00976336 
0.021255 -0.0275314 0.00975719 
0.02129 -0.0282236 0.00975102 
0.021325 -0.0289158 0.00974485 
0.02136 -0.029608 0.00973867 
0.021395 -0.0303003 0.0097325 
0.02143 -0.0309925 0.00972633 
0.021465 -0.0316847 0.00972016 
0.0215 -0.0323769 0.00971398 
0.021535 -0.0330692 0.00970781 
0.02157 -0.0337614 0.00970164 
0.021605 -0.0344536 0.00969547 
0.02164 -0.0351458 0.00968929 
0.021675 -0.0358381 0.00968312 
0.02141 -0.03646 0.0106395 
0.021445 -0.0371506 0.0106333 
0.02178 -0.0379148 0.0096646 
0.021815 -0.038607 0.00965843 
0.02185 -0.0392992 0.00965226 
0.021885 -0.0399914 0.00964608 
0.02192 -0.0406837 0.00963991 
0.021955 -0.0413759 0.00963374 
0.02229 -0.0421511 0.00866497 
0.022926 -0.0430142 0.00673354 
0.023562 -0.0438836 0.00480206 
0.024199 -0.0447594 0.00287052 
0.018886 0.046644 0.00355442 
0.018344 0.045706 0.00547038 
0.018091 0.04489 0.00642528 
0.018126 0.044192 0.00641905 
0.017872 0.04338 0.00737397 
0.017908 0.042683 0.00736775 
0.017943 0.041986 0.00736154 
0.017978 0.041289 0.00735532 
0.017724 0.040486 0.00831034 
0.017759 0.039791 0.00830413 
0.017794 0.039095 0.00829793 
0.01783 0.0384 0.00829173 
0.017865 0.037704 0.00828553 
0.0179 0.037009 0.00827933 
0.017935 0.036314 0.00827313 
0.01797 0.035618 0.00826693 
0.018005 0.034923 0.00826073 
0.01804 0.034227 0.00825452 
0.018076 0.033532 0.00824832 
0.018111 0.032837 0.00824212 
0.018146 0.032141 0.00823592 
0.018181 0.0314458 0.00822972 
0.018216 0.0307504 0.00822352 
0.018251 0.030055 0.00821732 
0.018287 0.0293596 0.00821112 
0.018322 0.0286642 0.00820492 
0.018357 0.0279687 0.00819871 
0.018392 0.0272733 0.00819251 
0.018427 0.0265779 0.00818631 
0.018462 0.0258825 0.00818011 
0.018497 0.0251871 0.00817391 
0.018533 0.0244917 0.00816771 
0.018568 0.0237963 0.00816151 
0.018603 0.0231009 0.00815531 
0.018638 0.0224055 0.0081491 
0.018673 0.0217101 0.0081429 
0.018708 0.0210147 0.0081367 
0.018744 0.0203192 0.0081305 
0.018779 0.0196238 0.0081243 
0.018814 0.0189284 0.0081181 
0.018849 0.018233 0.0081119 
0.018884 0.0175376 0.0081057 
0.018919 0.0168422 0.0080995 
0.018955 0.0161468 0.00809329 
0.01899 0.0154514 0.00808709 
0.019025 0.014756 0.00808089 
0.01906 0.0140606 0.00807469 
0.019095 0.0133652 0.00806849 
0.01913 0.0126697 0.00806229 
0.018873 0.0119333 0.00901787 
0.018908 0.0112395 0.00901168 
0.018943 0.0105457 0.0090055 
0.018978 0.0098519 0.00899931 
0.019013 0.0091581 0.00899312 
0.019048 0.0084642 0.00898693 
0.019083 0.0077704 0.00898075 
0.019118 0.0070766 0.00897456 
0.019154 0.0063828 0.00896837 
0.019189 0.005689 0.00896219 
0.019224 0.0049951 0.008956 
0.019259 0.0043013 0.00894981 
0.019294 0.0036075 0.00894363 
0.019329 0.0029137 0.00893744 
0.01907 0.0022011 0.00989323 
0.019105 0.0015089 0.00988706 
0.01914 0.000816704 0.00988089 
0.019175 0.000124496 0.00987471 
0.01921 -0.000567802 0.00986854 
0.019245 -0.00126 0.00986237 
0.01928 -0.0019522 0.0098562 
0.019315 -0.0026444 0.00985002 
0.01935 -0.0033367 0.00984385 
0.019385 -0.0040289 0.00983768 
0.01942 -0.0047211 0.0098315 
0.019455 -0.0054133 0.00982533 
0.01949 -0.0061056 0.00981916 
0.019525 -0.0067978 0.00981299 
0.01956 -0.00749 0.00980681 
0.019595 -0.0081823 0.00980064 
0.01963 -0.0088745 0.00979447 
0.019665 -0.0095667 0.00978829 
0.0197 -0.0102589 0.00978212 
0.019735 -0.0109512 0.00977595 
0.01977 -0.0116434 0.00976978 
0.019805 -0.0123356 0.0097636 
0.01984 -0.0130278 0.00975743 
0.019875 -0.0137201 0.00975126 
0.01991 -0.0144123 0.00974509 
0.019945 -0.0151045 0.00973891 
0.01998 -0.0157967 0.00973274 
0.020015 -0.016489 0.00972657 
0.02005 -0.0171812 0.0097204 
0.020085 -0.0178734 0.00971422 
0.02012 -0.0185656 0.00970805 
0.020155 -0.0192579 0.00970188 
0.02019 -0.0199501 0.0096957 
0.020225 -0.0206423 0.00968953 
0.02026 -0.0213346 0.00968336 
0.020295 -0.0220268 0.00967719 
0.02033 -0.022719 0.00967101 
0.020365 -0.0234112 0.00966484 
0.0204 -0.0241035 0.00965867 
0.020435 -0.0247957 0.00965249 
0.02047 -0.0254879 0.00964632 
0.020505 -0.0261801 0.00964015 
0.02054 -0.0268724 0.00963398 
0.020575 -0.0275646 0.0096278 
0.02061 -0.0282568 0.00962163 
0.020645 -0.028949 0.00961546 
0.02068 -0.0296413 0.00960928 
0.020715 -0.0303335 0.00960311 
0.020452 -0.0309681 0.0105596 
0.020487 -0.0316587 0.0105535 
0.020522 -0.0323493 0.0105473 
0.020557 -0.03304 0.0105412 
0.020592 -0.0337306 0.010535 
0.020627 -0.0344212 0.0105288 
0.020662 -0.0351119 0.0105227 
0.020697 -0.0358025 0.0105165 
0.020732 -0.0364932 0.0105104 
0.020767 -0.0371838 0.0105042 
0.020802 -0.0378744 0.010498 
0.020836 -0.0385651 0.0104919 
0.02117 -0.0393324 0.00952287 
0.021205 -0.0400247 0.00951669 
0.02124 -0.0407169 0.00951052 
0.021275 -0.0414091 0.00950435 
0.021609 -0.0421844 0.00853529 
0.022241 -0.0430476 0.00660326 
0.022875 -0.0439172 0.00467118 
0.023508 -0.0447932 0.00273905 
0.017908 0.046492 0.00438436 
0.017369 0.045555 0.00630093 
0.017404 0.044857 0.0062947 
0.017152 0.044044 0.0072499 
0.017188 0.043347 0.00724368 
0.017223 0.04265 0.00723747 
0.017258 0.041953 0.00723125 
0.017006 0.041148 0.00818655 
0.017041 0.040453 0.00818035 
0.017076 0.039757 0.00817415 
0.017111 0.039062 0.00816795 
0.017146 0.038366 0.00816175 
0.017181 0.037671 0.00815555 
0.017217 0.036976 0.00814934 
0.017252 0.03628 0.00814314 
0.017287 0.035585 0.00813694 
0.017322 0.034889 0.00813074 
0.017357 0.034194 0.00812454 
0.017392 0.033499 0.00811834 
0.017428 0.032803 0.00811214 
0.017463 0.032108 0.00810594 
0.017498 0.0314124 0.00809974 
0.017533 0.030717 0.00809353 
0.017568 0.0300216 0.00808733 
0.017603 0.0293262 0.00808113 
0.017638 0.0286308 0.00807493 
0.017674 0.0279354 0.00806873 
0.017709 0.02724 0.00806253 
0.017744 0.0265445 0.00805633 
0.017779 0.0258491 0.00805013 
0.017814 0.0251537 0.00804392 
0.017849 0.0244583 0.00803772 
0.017885 0.0237629 0.00803152 
0.01792 0.0230675 0.00802532 
0.017955 0.0223721 0.00801912 
0.01799 0.0216767 0.00801292 
0.018025 0.0209813 0.00800672 
0.01806 0.0202859 0.00800052 
0.018095 0.0195905 0.00799432 
0.018131 0.0188951 0.00798811 
0.018166 0.0181996 0.00798191 
0.018201 0.0175042 0.00797571 
0.018236 0.0168088 0.00796951 
0.018271 0.0161134 0.00796331 
0.018306 0.015418 0.00795711 
0.018342 0.0147226 0.00795091 
0.018377 0.0140272 0.00794471 
0.018412 0.0133318 0.00793851 
0.018156 0.0125938 0.00889437 
0.018191 0.0119 0.00888818 
0.018226 0.0112062 0.008882 
0.018261 0.0105124 0.00887581 
0.018296 0.0098186 0.00886962 
0.018332 0.0091247 0.00886343 
0.018367 0.0084309 0.00885725 
0.018402 0.0077371 0.00885106 
0.018437 0.0070433 0.00884487 
0.018472 0.0063495 0.00883869 
0.018507 0.0056557 0.0088325 
0.018542 0.0049618 0.00882631 
0.018577 0.004268 0.00882013 
0.018612 0.0035742 0.00881394 
0.018355 0.0028601 0.00977002 
0.01839 0.0021679 0.00976384 
0.018425 0.0014757 0.00975767 
0.01846 0.000783501 0.0097515 
0.018495 9.12018e-05 0.00974533 
0.01853 -0.000600998 0.00973915 
0.018565 -0.0012932 0.00973298 
0.0186 -0.0019855 0.00972681 
0.018635 -0.0026777 0.00972063 
0.01867 -0.0033699 0.00971446 
0.018705 -0.0040621 0.00970829 
0.01874 -0.0047544 0.00970212 
0.018775 -0.0054466 0.00969594 
0.01881 -0.0061388 0.00968977 
0.018845 -0.006831 0.0096836 
0.01888 -0.0075233 0.00967742 
0.018915 -0.0082155 0.00967125 
0.01895 -0.0089077 0.00966508 
0.018985 -0.0095999 0.00965891 
0.01902 -0.0102922 0.00965273 
0.019055 -0.0109844 0.00964656 
0.01909 -0.0116766 0.00964039 
0.019125 -0.0123688 0.00963421 
0.01916 -0.0130611 0.00962804 
0.019195 -0.0137533 0.00962187 
0.01923 -0.0144455 0.0096157 
0.019265 -0.0151377 0.00960952 
0.0193 -0.01583 0.00960335 
0.019335 -0.0165222 0.00959718 
0.01937 -0.0172144 0.009591 
0.019405 -0.0179067 0.00958483 
0.01944 -0.0185989 0.00957866 
0.019475 -0.0192911 0.00957249 
0.01951 -0.0199833 0.00956631 
0.019545 -0.0206756 0.00956014 
0.01958 -0.0213678 0.00955397 
0.019615 -0.02206 0.0095478 
0.01965 -0.0227522 0.00954162 
0.019685 -0.0234445 0.00953545 
0.01972 -0.0241367 0.00952928 
0.019755 -0.0248289 0.0095231 
0.01979 -0.0255211 0.00951693 
0.019825 -0.0262134 0.00951076 
0.01986 -0.0269056 0.00950459 
0.019895 -0.0275978 0.00949841 
0.019634 -0.0282387 0.0104552 
0.019669 -0.0289293 0.010449 
0.019704 -0.02962 0.0104429 
0.019739 -0.0303106 0.0104367 
0.019774 -0.0310012 0.0104305 
0.019809 -0.0316919 0.0104244 
0.019844 -0.0323825 0.0104182 
0.019879 -0.0330731 0.0104121 
0.019914 -0.0337638 0.0104059 
0.019948 -0.0344544 0.0103997 
0.019983 -0.035145 0.0103936 
0.020018 -0.0358357 0.0103874 
0.020053 -0.0365263 0.0103813 
0.020088 -0.0372169 0.0103751 
0.020123 -0.0379076 0.010369 
0.020158 -0.0385982 0.0103628 
0.020193 -0.0392888 0.0103566 
0.020228 -0.0399795 0.0103505 
0.020263 -0.0406701 0.0103443 
0.020595 -0.0414423 0.00937496 
0.02063 -0.0421346 0.00936878 
0.021259 -0.0429963 0.00743621 
0.021889 -0.0438645 0.00550355 
0.022519 -0.044739 0.00357083 
0.017218 0.046458 0.00425319 
0.016683 0.045522 0.00617035 
0.016718 0.044823 0.00616412 
0.016467 0.04401 0.00711962 
0.016503 0.043313 0.0071134 
0.016538 0.042616 0.00710719 
0.016287 0.04181 0.00806277 
0.016322 0.041115 0.00805657 
0.016358 0.040419 0.00805037 
0.016393 0.039724 0.00804416 
0.016428 0.039029 0.00803796 
0.016463 0.038333 0.00803176 
0.016498 0.037638 0.00802556 
0.016533 0.036942 0.00801936 
0.016569 0.036247 0.00801316 
0.016604 0.035551 0.00800696 
0.016639 0.034856 0.00800076 
0.016674 0.034161 0.00799456 
0.016709 0.033465 0.00798835 
0.016744 0.03277 0.00798215 
0.016779 0.032074 0.00797595 
0.016815 0.031379 0.00796975 
0.01685 0.0306836 0.00796355 
0.016885 0.0299882 0.00795735 
0.01692 0.0292928 0.00795115 
0.016955 0.0285974 0.00794495 
0.01699 0.027902 0.00793875 
0.017026 0.0272066 0.00793254 
0.017061 0.0265112 0.00792634 
0.017096 0.0258158 0.00792014 
0.017131 0.0251203 0.00791394 
0.017166 0.0244249 0.00790774 
0.017201 0.0237295 0.00790154 
0.017236 0.0230341 0.00789534 
0.017272 0.0223387 0.00788914 
0.017307 0.0216433 0.00788294 
0.017342 0.0209479 0.00787673 
0.017377 0.0202525 0.00787053 
0.017412 0.0195571 0.00786433 
0.017447 0.0188617 0.00785813 
0.017483 0.0181663 0.00785193 
0.017518 0.0174708 0.00784573 
0.017553 0.0167754 0.00783953 
0.017588 0.01608 0.00783333 
0.017623 0.0153846 0.00782712 
0.017658 0.0146892 0.00782092 
0.017693 0.0139938 0.00781472 
0.017729 0.0132984 0.00780852 
0.017474 0.0125605 0.00876468 
0.01751 0.0118667 0.0087585 
0.017545 0.0111729 0.00875231 
0.01758 0.0104791 0.00874612 
0.017615 0.0097853 0.00873993 
0.01765 0.0090914 0.00873375 
0.017685 0.0083976 0.00872756 
0.01772 0.0077038 0.00872137 
0.017755 0.00701 0.00871519 
0.01779 0.0063162 0.008709 
0.017825 0.0056224 0.00870281 
0.01786 0.0049285 0.00869663 
0.017895 0.0042347 0.00869044 
0.01764 0.0035191 0.0096468 
0.017675 0.0028269 0.00964063 
0.01771 0.0021347 0.00963445 
0.017745 0.0014425 0.00962828 
0.01778 0.000750198 0.00962211 
0.017815 5.79987e-05 0.00961594 
0.01785 -0.000634201 0.00960976 
0.017885 -0.0013265 0.00960359 
0.01792 -0.0020187 0.00959742 
0.017955 -0.0027109 0.00959124 
0.01799 -0.0034031 0.00958507 
0.018025 -0.0040954 0.0095789 
0.01806 -0.0047876 0.00957273 
0.018095 -0.0054798 0.00956655 
0.01813 -0.006172 0.00956038 
0.018165 -0.0068643 0.00955421 
0.0182 -0.0075565 0.00954804 
0.018235 -0.0082487 0.00954186 
0.01827 -0.0089409 0.00953569 
0.018305 -0.0096332 0.00952952 
0.01834 -0.0103254 0.00952334 
0.018375 -0.0110176 0.00951717 
0.01841 -0.0117098 0.009511 
0.018445 -0.0124021 0.00950483 
0.01848 -0.0130943 0.00949865 
0.018515 -0.0137865 0.00949248 
0.01855 -0.0144787 0.00948631 
0.018585 -0.015171 0.00948013 
0.01862 -0.0158632 0.00947396 
0.018655 -0.0165554 0.00946779 
0.01869 -0.0172477 0.00946162 
0.018725 -0.0179399 0.00945544 
0.01876 -0.0186321 0.00944927 
0.018795 -0.0193243 0.0094431 
0.01883 -0.0200166 0.00943692 
0.018865 -0.0207088 0.00943075 
0.0189 -0.021401 0.00942458 
0.018935 -0.0220932 0.00941841 
0.01897 -0.0227855 0.00941223 
0.019005 -0.0234777 0.00940606 
0.01904 -0.0241699 0.00939989 
0.019075 -0.0248621 0.00939371 
0.018816 -0.0255093 0.0103507 
0.018851 -0.0261999 0.0103446 
0.018886 -0.0268906 0.0103384 
0.018921 -0.0275812 0.0103322 
0.018956 -0.0282718 0.0103261 
0.018991 -0.0289625 0.0103199 
0.019026 -0.0296531 0.0103138 
0.01906 -0.0303437 0.0103076 
0.019095 -0.0310344 0.0103014 
0.01913 -0.031725 0.0102953 
0.019165 -0.0324156 0.0102891 
0.0192 -0.0331063 0.010283 
0.019235 -0.0337969 0.0102768 
0.01927 -0.0344876 0.0102707 
0.019305 -0.0351782 0.0102645 
0.01934 -0.0358688 0.0102583 
0.019375 -0.0365595 0.0102522 
0.01941 -0.0372501 0.010246 
0.019444 -0.0379407 0.0102399 
0.019479 -0.0386314 0.0102337 
0.019514 -0.039322 0.0102275 
0.019549 -0.0400126 0.0102214 
0.019584 -0.0407033 0.0102152 
0.019619 -0.0413939 0.0102091 
0.01995 -0.0421678 0.0092394 
0.020576 -0.0430297 0.00730623 
0.021203 -0.043898 0.00537297 
0.02183 -0.0447726 0.00343966 
0.016529 0.046424 0.00412202 
0.015996 0.045488 0.00603977 
0.015747 0.044674 0.00699555 
0.015783 0.043977 0.00698934 
0.015818 0.04328 0.00698312 
0.015569 0.042472 0.00793899 
0.015604 0.041777 0.00793278 
0.015639 0.041081 0.00792658 
0.015674 0.040386 0.00792038 
0.01571 0.039691 0.00791418 
0.015745 0.038995 0.00790798 
0.01578 0.0383 0.00790178 
0.015815 0.037604 0.00789558 
0.01585 0.036909 0.00788938 
0.015885 0.036214 0.00788317 
0.01592 0.035518 0.00787697 
0.015956 0.034823 0.00787077 
0.015991 0.034127 0.00786457 
0.016026 0.033432 0.00785837 
0.016061 0.032736 0.00785217 
0.016096 0.032041 0.00784597 
0.016131 0.0313456 0.00783977 
0.016166 0.0306502 0.00783357 
0.016202 0.0299548 0.00782736 
0.016237 0.0292594 0.00782116 
0.016272 0.028564 0.00781496 
0.016307 0.0278686 0.00780876 
0.016342 0.0271732 0.00780256 
0.016377 0.0264778 0.00779636 
0.016413 0.0257824 0.00779016 
0.016448 0.025087 0.00778396 
0.016483 0.0243916 0.00777776 
0.016518 0.0236961 0.00777155 
0.016553 0.0230007 0.00776535 
0.016588 0.0223053 0.00775915 
0.016623 0.0216099 0.00775295 
0.016659 0.0209145 0.00774675 
0.016694 0.0202191 0.00774055 
0.016729 0.0195237 0.00773435 
0.016764 0.0188283 0.00772815 
0.016799 0.0181329 0.00772194 
0.016834 0.0174375 0.00771574 
0.01687 0.0167421 0.00770954 
0.016905 0.0160466 0.00770334 
0.01694 0.0153512 0.00769714 
0.016975 0.0146558 0.00769094 
0.016723 0.0139149 0.00864737 
0.016758 0.013221 0.00864118 
0.016793 0.0125272 0.008635 
0.016828 0.0118334 0.00862881 
0.016863 0.0111396 0.00862262 
0.016898 0.0104458 0.00861643 
0.016933 0.009752 0.00861025 
0.016968 0.0090581 0.00860406 
0.017003 0.0083643 0.00859787 
0.017038 0.0076705 0.00859169 
0.017073 0.0069767 0.0085855 
0.017108 0.0062829 0.00857931 
0.017143 0.0055891 0.00857313 
0.017179 0.0048952 0.00856694 
0.016925 0.0041781 0.00952358 
0.01696 0.0034859 0.00951741 
0.016995 0.0027937 0.00951124 
0.01703 0.0021014 0.00950506 
0.017065 0.0014092 0.00949889 
0.0171 0.000717003 0.00949272 
0.017135 2.48032e-05 0.00948655 
0.01717 -0.000667503 0.00948037 
0.017205 -0.0013597 0.0094742 
0.01724 -0.0020519 0.00946803 
0.017275 -0.0027441 0.00946185 
0.01731 -0.0034364 0.00945568 
0.017345 -0.0041286 0.00944951 
0.01738 -0.0048208 0.00944334 
0.017415 -0.005513 0.00943716 
0.01745 -0.0062053 0.00943099 
0.017485 -0.0068975 0.00942482 
0.01752 -0.0075897 0.00941865 
0.017555 -0.0082819 0.00941247 
0.01759 -0.0089742 0.0094063 
0.017625 -0.0096664 0.00940013 
0.01766 -0.0103586 0.00939395 
0.017695 -0.0110508 0.00938778 
0.01773 -0.0117431 0.00938161 
0.017765 -0.0124353 0.00937544 
0.0178 -0.0131275 0.00936926 
0.017835 -0.0138198 0.00936309 
0.01787 -0.014512 0.00935692 
0.017905 -0.0152042 0.00935075 
0.01794 -0.0158964 0.00934457 
0.017975 -0.0165887 0.0093384 
0.01801 -0.0172809 0.00933223 
0.018045 -0.0179731 0.00932605 
0.01808 -0.0186653 0.00931988 
0.018115 -0.0193576 0.00931371 
0.01815 -0.0200498 0.00930754 
0.018185 -0.020742 0.00930136 
0.01822 -0.0214342 0.00929519 
0.018255 -0.0221265 0.00928902 
0.01829 -0.0228187 0.00928284 
0.018325 -0.0235109 0.00927667 
0.018068 -0.0241612 0.0102339 
0.018103 -0.0248518 0.0102278 
0.018137 -0.0255425 0.0102216 
0.018172 -0.0262331 0.0102155 
0.018207 -0.0269237 0.0102093 
0.018242 -0.0276144 0.0102031 
0.018277 -0.028305 0.010197 
0.018312 -0.0289956 0.0101908 
0.018347 -0.0296863 0.0101847 
0.018382 -0.0303769 0.0101785 
0.018417 -0.0310675 0.0101724 
0.018452 -0.0317582 0.0101662 
0.018487 -0.0324488 0.01016 
0.018521 -0.0331394 0.0101539 
0.018556 -0.0338301 0.0101477 
0.018591 -0.0345207 0.0101416 
0.018626 -0.0352113 0.0101354 
0.018661 -0.035902 0.0101292 
0.018696 -0.0365926 0.0101231 
0.018731 -0.0372832 0.0101169 
0.018766 -0.0379739 0.0101108 
0.018801 -0.0386645 0.0101046 
0.018836 -0.0393552 0.0100985 
0.018871 -0.0400458 0.0100923 
0.018906 -0.0407364 0.0100861 
0.01894 -0.041427 0.01008 
0.019269 -0.042201 0.00911001 
0.019893 -0.0430631 0.00717624 
0.020516 -0.0439315 0.00524239 
0.02114 -0.0448063 0.00330849 
0.015839 0.046391 0.00399084 
0.015027 0.045338 0.00687149 
0.015063 0.044641 0.00686527 
0.015098 0.043944 0.00685906 
0.015133 0.043247 0.00685284 
0.014886 0.042439 0.007809 
0.014921 0.041743 0.0078028 
0.014956 0.041048 0.0077966 
0.014991 0.040353 0.0077904 
0.015026 0.039657 0.0077842 
0.015061 0.038962 0.007778 
0.015097 0.038266 0.00777179 
0.015132 0.037571 0.00776559 
0.015167 0.036876 0.00775939 
0.015202 0.03618 0.00775319 
0.015237 0.035485 0.00774699 
0.015272 0.034789 0.00774079 
0.015307 0.034094 0.00773459 
0.015343 0.033398 0.00772839 
0.015378 0.032703 0.00772218 
0.015413 0.032008 0.00771598 
0.015448 0.0313123 0.00770978 
0.015483 0.0306169 0.00770358 
0.015518 0.0299214 0.00769738 
0.015553 0.029226 0.00769118 
0.015589 0.0285306 0.00768498 
0.015624 0.0278352 0.00767878 
0.015659 0.0271398 0.00767258 
0.015694 0.0264444 0.00766637 
0.015729 0.025749 0.00766017 
0.015764 0.0250536 0.00765397 
0.0158 0.0243582 0.00764777 
0.015835 0.0236628 0.00764157 
0.01587 0.0229674 0.00763537 
0.015905 0.0222719 0.00762917 
0.01594 0.0215765 0.00762297 
0.015975 0.0208811 0.00761677 
0.016011 0.0201857 0.00761056 
0.016046 0.0194903 0.00760436 
0.016081 0.0187949 0.00759816 
0.016116 0.0180995 0.00759196 
0.016151 0.0174041 0.00758576 
0.016186 0.0167087 0.00757956 
0.016221 0.0160133 0.00757336 
0.016257 0.0153179 0.00756716 
0.016006 0.0145754 0.00852387 
0.016041 0.0138816 0.00851768 
0.016076 0.0131877 0.0085115 
0.016111 0.0124939 0.00850531 
0.016146 0.0118001 0.00849912 
0.016181 0.0111063 0.00849294 
0.016216 0.0104125 0.00848675 
0.016251 0.0097187 0.00848056 
0.016286 0.0090248 0.00847437 
0.016321 0.008331 0.00846819 
0.016357 0.0076372 0.008462 
0.016392 0.0069434 0.00845581 
0.016427 0.0062496 0.00844963 
0.016462 0.0055557 0.00844344 
0.01621 0.0048371 0.00940037 
0.016245 0.0041449 0.00939419 
0.01628 0.0034527 0.00938802 
0.016315 0.0027605 0.00938185 
0.01635 0.0020682 0.00937568 
0.016385 0.001376 0.0093695 
0.01642 0.0006838 0.00936333 
0.016455 -8.49915e-06 0.00935716 
0.01649 -0.000700699 0.00935098 
0.016525 -0.0013929 0.00934481 
0.01656 -0.0020851 0.00933864 
0.016595 -0.0027774 0.00933247 
0.01663 -0.0034696 0.00932629 
0.016665 -0.0041618 0.00932012 
0.0167 -0.004854 0.00931395 
0.016735 -0.0055463 0.00930777 
0.01677 -0.0062385 0.0093016 
0.016805 -0.0069307 0.00929543 
0.01684 -0.0076229 0.00928926 
0.016875 -0.0083152 0.00928308 
0.01691 -0.0090074 0.00927691 
0.016945 -0.0096996 0.00927074 
0.01698 -0.0103918 0.00926457 
0.017015 -0.0110841 0.00925839 
0.01705 -0.0117763 0.00925222 
0.017085 -0.0124685 0.00924605 
0.01712 -0.0131608 0.00923987 
0.017155 -0.013853 0.0092337 
0.01719 -0.0145452 0.00922753 
0.017225 -0.0152374 0.00922136 
0.01726 -0.0159297 0.00921518 
0.017295 -0.0166219 0.00920901 
0.01733 -0.0173141 0.00920284 
0.017365 -0.0180063 0.00919666 
0.0174 -0.0186986 0.00919049 
0.017435 -0.0193908 0.00918432 
0.01747 -0.020083 0.00917815 
0.017505 -0.0207752 0.00917197 
0.017539 -0.0214675 0.0091658 
0.017284 -0.0221224 0.0101233 
0.017319 -0.0228131 0.0101172 
0.017354 -0.0235037 0.010111 
0.017389 -0.0241943 0.0101048 
0.017424 -0.024885 0.0100987 
0.017459 -0.0255756 0.0100925 
0.017494 -0.0262662 0.0100864 
0.017529 -0.0269569 0.0100802 
0.017564 -0.0276475 0.0100741 
0.017599 -0.0283381 0.0100679 
0.017633 -0.0290288 0.0100617 
0.017668 -0.0297194 0.0100556 
0.017703 -0.03041 0.0100494 
0.017738 -0.0311007 0.0100433 
0.017773 -0.0317913 0.0100371 
0.017808 -0.032482 0.0100309 
0.017843 -0.0331726 0.0100248 
0.017878 -0.0338632 0.0100186 
0.017913 -0.0345539 0.0100125 
0.017948 -0.0352445 0.0100063 
0.017983 -0.0359351 0.0100002 
0.018017 -0.0366258 0.00999399 
0.01776 -0.0372441 0.0109518 
0.017795 -0.0379332 0.0109457 
0.018122 -0.0386977 0.00997552 
0.017865 -0.0393113 0.0109334 
0.018192 -0.0400789 0.0099632 
