ply
format ascii 1.0
comment FreeCAD generated
element vertex 1785
property float x
property float y
property float z
end_header
-2.80500 -14.2319 53.9816 
-2.78300 -13.5120 53.9772 
-2.76100 -12.7921 53.9728 
-2.73900 -12.0723 53.9684 
-2.71700 -11.3524 53.9640 
-2.69500 -10.6325 53.9596 
-2.67300 -9.91260 53.9552 
-2.65100 -9.19270 53.9509 
-2.63000 -8.47290 53.9465 
-2.60800 -7.75300 53.9421 
-2.58600 -7.03310 53.9377 
-2.56400 -6.31320 53.9333 
-2.54200 -5.59330 53.9289 
-2.52000 -4.87340 53.9245 
-2.49800 -4.15360 53.9201 
-3.25800 -3.32460 53.2946 
-3.23600 -2.60310 53.2902 
-3.21400 -1.88160 53.2858 
-3.19200 -1.16010 53.2815 
-3.17000 -0.438702 53.2771 
-3.14800 0.282799 53.2727 
-3.12600 1.00430 53.2683 
-3.10400 1.72570 53.2639 
-3.08200 2.44720 53.2595 
-3.06000 3.16870 53.2551 
-3.03900 3.89020 53.2507 
-3.01700 4.61160 53.2463 
-2.99500 5.33310 53.2419 
-2.97300 6.05460 53.2375 
-2.95100 6.77610 53.2331 
-2.92900 7.49750 53.2287 
-2.90700 8.21900 53.2243 
-2.88500 8.94050 53.2199 
-2.86300 9.66190 53.2155 
-2.84100 10.3834 53.2111 
-2.81900 11.1049 53.2067 
-2.79700 11.8264 53.2023 
-3.55600 12.6920 52.5766 
-3.53400 13.4151 52.5722 
-3.51200 14.1381 52.5678 
-3.49000 14.8612 52.5634 
-3.46800 15.5843 52.5590 
-3.44600 16.3073 52.5545 
-3.42400 17.0304 52.5501 
-3.40200 17.7535 52.5457 
-3.38000 18.4765 52.5413 
-4.13800 19.3581 51.9155 
-4.11600 20.0827 51.9111 
-4.09400 20.8074 51.9067 
-2.56700 -21.4479 53.4683 
-2.54500 -20.7281 53.4639 
-2.52400 -20.0082 53.4595 
-2.50200 -19.2883 53.4552 
-2.48000 -18.5684 53.4508 
-2.45800 -17.8485 53.4464 
-2.43600 -17.1287 53.4420 
-2.41400 -16.4088 53.4376 
-2.39200 -15.6889 53.4332 
-2.37000 -14.9690 53.4288 
-2.34900 -14.2491 53.4244 
-2.32700 -13.5293 53.4201 
-2.30500 -12.8094 53.4157 
-2.28300 -12.0895 53.4113 
-2.26100 -11.3696 53.4069 
-2.23900 -10.6497 53.4025 
-2.21700 -9.92990 53.3981 
-2.19500 -9.21000 53.3937 
-2.17300 -8.49010 53.3894 
-2.15200 -7.77020 53.3850 
-2.13000 -7.05030 53.3806 
-2.10800 -6.33050 53.3762 
-2.08600 -5.61060 53.3718 
-2.06400 -4.89070 53.3674 
-2.04200 -4.17080 53.3630 
-2.02000 -3.45090 53.3586 
-1.99800 -2.73110 53.3543 
-1.97700 -2.01120 53.3499 
-2.73500 -1.17740 52.7231 
-2.71300 -0.456001 52.7187 
-2.69100 0.265499 52.7143 
-2.66900 0.987000 52.7099 
-2.64700 1.70850 52.7055 
-2.62500 2.42990 52.7011 
-2.60300 3.15140 52.6967 
-2.58100 3.87290 52.6923 
-2.55900 4.59430 52.6879 
-2.53700 5.31580 52.6835 
-2.51600 6.03730 52.6791 
-2.49400 6.75880 52.6748 
-2.47200 7.48020 52.6704 
-2.45000 8.20170 52.6660 
-2.42800 8.92320 52.6616 
-2.40600 9.64460 52.6572 
-2.38400 10.3661 52.6528 
-2.36200 11.0876 52.6484 
-2.34000 11.8091 52.6440 
-2.31800 12.5305 52.6396 
-3.07600 13.3977 52.0126 
-3.05400 14.1208 52.0082 
-3.03200 14.8439 52.0038 
-3.01000 15.5669 51.9994 
-2.98800 16.2900 51.9950 
-2.96600 17.0131 51.9906 
-2.94400 17.7361 51.9862 
-2.92200 18.4592 51.9818 
-2.90000 19.1823 51.9774 
-3.65700 20.0654 51.3503 
-4.41300 20.9517 50.7232 
-2.11100 -21.4652 52.9112 
-2.08900 -20.7453 52.9068 
-2.06700 -20.0254 52.9024 
-2.04600 -19.3056 52.8980 
-1.24300 -18.6613 53.5170 
-1.22100 -17.9430 53.5127 
-1.98000 -17.1459 52.8849 
-1.17800 -16.5064 53.5039 
-1.15600 -15.7881 53.4995 
-1.13400 -15.0699 53.4952 
-1.11200 -14.3516 53.4908 
-1.09100 -13.6333 53.4864 
-1.06900 -12.9150 53.4820 
-1.04700 -12.1967 53.4776 
-1.02500 -11.4784 53.4733 
-1.00300 -10.7601 53.4689 
-0.981001 -10.0418 53.4645 
-1.73900 -9.22720 52.8366 
-1.71700 -8.50740 52.8322 
-1.69500 -7.78750 52.8279 
-1.67400 -7.06760 52.8235 
-1.65200 -6.34770 52.8191 
-1.63000 -5.62780 52.8147 
-1.60800 -4.90800 52.8103 
-1.58600 -4.18810 52.8059 
-1.56400 -3.46820 52.8015 
-1.54200 -2.74830 52.7972 
-1.52000 -2.02850 52.7928 
-1.49800 -1.30860 52.7884 
-2.25600 -0.473301 52.1604 
-2.23400 0.248199 52.1560 
-2.21200 0.969700 52.1516 
-2.19000 1.69120 52.1472 
-2.16800 2.41260 52.1428 
-2.14600 3.13410 52.1384 
-2.12400 3.85560 52.1340 
-2.10200 4.57700 52.1296 
-2.08000 5.29850 52.1252 
-2.05800 6.02000 52.1208 
-2.03600 6.74150 52.1164 
-2.01500 7.46290 52.1120 
-1.99300 8.18440 52.1076 
-1.97100 8.90590 52.1032 
-1.94900 9.62730 52.0988 
-1.92700 10.3488 52.0944 
-1.90500 11.0703 52.0900 
-1.88300 11.7918 52.0856 
-2.63900 12.6573 51.4574 
-2.61700 13.3804 51.4530 
-2.59500 14.1035 51.4486 
-2.57300 14.8265 51.4442 
-2.55100 15.5496 51.4398 
-2.52900 16.2727 51.4354 
-2.50700 16.9957 51.4310 
-2.48500 17.7188 51.4266 
-2.46400 18.4419 51.4222 
-3.21900 19.3233 50.7939 
-3.97500 20.2080 50.1656 
-4.73100 21.0959 49.5373 
-1.63300 -20.7626 52.3497 
-1.61100 -20.0427 52.3453 
-0.809999 -19.3968 52.9655 
-0.788000 -18.6785 52.9612 
-0.766001 -17.9602 52.9568 
-0.745001 -17.2419 52.9524 
-0.723000 -16.5237 52.9480 
-0.701000 -15.8054 52.9436 
-0.679001 -15.0871 52.9393 
-0.657000 -14.3688 52.9349 
-0.635000 -13.6505 52.9305 
-0.614000 -12.9322 52.9261 
-0.591999 -12.2139 52.9218 
-0.570000 -11.4956 52.9174 
-0.548000 -10.7774 52.9130 
-0.525999 -10.0591 52.9086 
-0.504000 -9.34080 52.9043 
-1.26100 -8.52460 52.2751 
-1.23900 -7.80470 52.2708 
-1.21700 -7.08490 52.2664 
-1.19500 -6.36500 52.2620 
-1.17400 -5.64510 52.2576 
-1.15200 -4.92520 52.2532 
-1.13000 -4.20530 52.2488 
-1.10800 -3.48550 52.2444 
-1.08600 -2.76560 52.2400 
-1.06400 -2.04570 52.2357 
-1.82100 -1.21200 51.6064 
-1.79900 -0.490601 51.6020 
-1.77700 0.230900 51.5976 
-1.75500 0.952400 51.5932 
-1.73300 1.67390 51.5888 
-1.71100 2.39530 51.5845 
-1.68900 3.11680 51.5801 
-1.66700 3.83830 51.5757 
-1.64500 4.55970 51.5713 
-1.62300 5.28120 51.5669 
-1.60100 6.00270 51.5625 
-1.57900 6.72420 51.5581 
-1.55700 7.44560 51.5537 
-1.53600 8.16710 51.5493 
-1.51400 8.88860 51.5449 
-1.49200 9.61010 51.5405 
-2.24700 10.4708 50.9111 
-2.22500 11.1939 50.9067 
-2.20300 11.9169 50.9023 
-2.18100 12.6400 50.8979 
-2.15900 13.3631 50.8935 
-2.13700 14.0861 50.8890 
-2.11500 14.8092 50.8846 
-2.09300 15.5323 50.8802 
-2.07100 16.2553 50.8758 
-2.04900 16.9784 50.8714 
-2.02700 17.7015 50.8670 
-2.78200 18.5813 50.2375 
-2.76000 19.3060 50.2331 
-3.51500 20.1906 49.6035 
-5.04600 21.2400 48.3488 
-1.17700 -20.7798 51.7926 
-1.15500 -20.0600 51.7882 
-0.355000 -19.4140 52.4097 
-0.333000 -18.6957 52.4053 
-0.311001 -17.9774 52.4009 
-0.289000 -17.2592 52.3965 
-0.268000 -16.5409 52.3922 
-0.246000 -15.8226 52.3878 
-0.224001 -15.1043 52.3834 
-0.202000 -14.3860 52.3790 
-0.180000 -13.6677 52.3746 
-0.158001 -12.9494 52.3703 
-0.136999 -12.2312 52.3659 
-0.115000 -11.5129 52.3615 
-0.0930004 -10.7946 52.3571 
-0.0709991 -10.0763 52.3528 
-0.0489998 -9.35800 52.3484 
-0.805000 -8.54190 51.7180 
-0.783001 -7.82200 51.7136 
-0.761000 -7.10210 51.7093 
-0.739000 -6.38220 51.7049 
-0.718000 -5.66240 51.7005 
-0.695999 -4.94250 51.6961 
-0.674000 -4.22260 51.6917 
-0.652000 -3.50270 51.6873 
-0.629999 -2.78280 51.6829 
-1.38500 -1.95080 51.0525 
-1.36300 -1.22930 51.0481 
-1.34100 -0.507900 51.0437 
-1.32000 0.213600 51.0393 
-1.29800 0.935101 51.0349 
-1.27600 1.65660 51.0305 
-1.25400 2.37800 51.0261 
-1.23200 3.09950 51.0217 
-1.21000 3.82100 51.0173 
-1.18800 4.54240 51.0129 
-1.16600 5.26390 51.0085 
-1.14400 5.98540 51.0041 
-1.12200 6.70690 50.9997 
-1.87700 7.56120 50.3691 
-1.85500 8.28430 50.3647 
-1.83300 9.00730 50.3603 
-1.81100 9.73040 50.3559 
-1.78900 10.4535 50.3515 
-1.76700 11.1765 50.3471 
-1.74500 11.8996 50.3427 
-1.72300 12.6227 50.3383 
-1.70100 13.3457 50.3339 
-1.67900 14.0688 50.3295 
-1.65700 14.7919 50.3251 
-1.63500 15.5149 50.3207 
-1.61300 16.2380 50.3163 
-2.36700 17.1146 49.6855 
-2.34500 17.8393 49.6811 
-2.32300 18.5639 49.6767 
-3.07700 19.4470 49.0459 
-3.83100 20.3331 48.4152 
-4.58400 21.2225 47.7843 
-6.11300 22.2782 46.5271 
-9.17102 24.4087 44.0126 
-11.4750 25.6514 42.1289 
-14.5550 27.0730 39.6187 
-16.0830 28.1660 38.3613 
-0.743000 -21.5170 51.2399 
-0.721001 -20.7971 51.2355 
-0.698999 -20.0772 51.2311 
-0.677000 -19.3573 51.2267 
0.122000 -18.7130 51.8494 
-0.632999 -17.9176 51.2180 
0.166000 -17.2764 51.8407 
0.188000 -16.5581 51.8363 
0.209000 -15.8398 51.8319 
0.231001 -15.1215 51.8275 
0.253000 -14.4032 51.8231 
0.275000 -13.6849 51.8188 
0.297001 -12.9667 51.8144 
0.319000 -12.2484 51.8100 
-0.436001 -11.4387 51.1785 
-0.415001 -10.7188 51.1741 
-0.393000 -9.99890 51.1697 
-0.371000 -9.27900 51.1653 
-0.349001 -8.55910 51.1609 
-0.327000 -7.83930 51.1565 
-0.305000 -7.11940 51.1521 
-0.283001 -6.39950 51.1478 
-0.261000 -5.67960 51.1434 
-1.01600 -4.85400 50.5117 
-0.993999 -4.13250 50.5073 
-0.972000 -3.41100 50.5029 
-0.950001 -2.68960 50.4986 
-0.927999 -1.96810 50.4942 
-0.906000 -1.24660 50.4898 
-0.884001 -0.525200 50.4854 
-0.862000 0.196301 50.4810 
-0.840000 0.917801 50.4766 
-0.819000 1.63930 50.4722 
-0.797001 2.36070 50.4678 
-0.775000 3.08220 50.4634 
-1.52900 3.92850 49.8316 
-1.50700 4.65160 49.8272 
-1.48500 5.37470 49.8228 
-1.46300 6.09770 49.8184 
-1.44100 6.82080 49.8140 
-1.41900 7.54390 49.8096 
-1.39700 8.26690 49.8052 
-1.37500 8.99000 49.8007 
-1.35300 9.71310 49.7963 
-1.33100 10.4361 49.7919 
-2.08400 11.3000 49.1601 
-2.06200 12.0247 49.1556 
-2.04000 12.7493 49.1512 
-2.01800 13.4740 49.1468 
-1.99600 14.1986 49.1424 
-1.97400 14.9233 49.1380 
-1.95200 15.6479 49.1336 
-1.93000 16.3726 49.1292 
-1.90800 17.0973 49.1247 
-1.88600 17.8219 49.1203 
-2.63900 18.7033 48.4883 
-2.61700 19.4295 48.4839 
-4.14400 20.4756 47.2243 
-4.89700 21.3665 46.5922 
-6.42400 22.4238 45.3326 
-7.95100 23.4873 44.0728 
-9.47803 24.5573 42.8131 
-11.7790 25.8015 40.9257 
-14.0790 27.0550 39.0382 
-14.8310 27.9760 38.4059 
-15.5830 28.9010 37.7737 
-64.7630 -42.2339 -0.674859 
-63.1810 -41.4261 0.575940 
-61.5990 -40.6246 1.82674 
-62.3520 -39.7560 1.19361 
-63.1040 -38.8842 0.560451 
-62.3000 -38.0646 1.18330 
-8.91803 -23.7239 43.7898 
-4.21400 -22.6445 47.5503 
-1.86200 -22.1191 49.4306 
-1.06300 -21.4652 50.0545 
-1.04100 -20.7437 50.0501 
-0.243000 -20.0945 50.6740 
-0.221001 -19.3746 50.6696 
-0.198999 -18.6547 50.6652 
-0.177000 -17.9348 50.6608 
-0.155001 -17.2150 50.6565 
-0.132999 -16.4951 50.6521 
0.665001 -15.8570 51.2760 
0.686001 -15.1387 51.2717 
-0.0680008 -14.3354 50.6389 
-0.0459995 -13.6156 50.6345 
-0.0240002 -12.8957 50.6301 
-0.00200081 -12.1758 50.6258 
0.0200005 -11.4559 50.6214 
0.0419998 -10.7360 50.6170 
0.0629997 -10.0162 50.6126 
0.0849991 -9.29630 50.6082 
0.107000 -8.57640 50.6038 
0.129000 -7.85650 50.5994 
-0.625000 -7.03570 49.9666 
-0.603001 -6.31420 49.9622 
-0.580999 -5.59280 49.9578 
-0.559000 -4.87130 49.9534 
-0.537001 -4.14980 49.9490 
-0.514999 -3.42830 49.9446 
-0.493000 -2.70690 49.9402 
-0.471001 -1.98540 49.9358 
-0.448999 -1.26390 49.9314 
-0.427000 -0.542400 49.9270 
-0.405001 0.179001 49.9226 
-1.15800 1.01900 49.2896 
-1.13600 1.74200 49.2852 
-1.11400 2.46510 49.2808 
-1.09200 3.18810 49.2764 
-1.07000 3.91120 49.2720 
-1.04800 4.63430 49.2676 
-1.02600 5.35730 49.2632 
-1.00500 6.08040 49.2588 
-1.75700 6.93470 48.6258 
-1.73500 7.65930 48.6213 
-1.71300 8.38400 48.6169 
-1.69100 9.10870 48.6125 
-1.66900 9.83330 48.6081 
-1.64700 10.5580 48.6037 
-1.62500 11.2826 48.5993 
-1.60300 12.0073 48.5948 
-1.58100 12.7319 48.5904 
-1.55900 13.4566 48.5860 
-1.53700 14.1813 48.5816 
-1.51500 14.9059 48.5772 
-1.49300 15.6306 48.5728 
-2.24500 16.5071 47.9396 
-2.22300 17.2334 47.9351 
-2.20100 17.9596 47.9307 
-2.17900 18.6859 47.9263 
-2.93000 19.5704 47.2930 
-3.68200 20.4581 46.6598 
-5.20700 21.5105 45.3977 
-6.73200 22.5692 44.1355 
-8.25702 23.6343 42.8733 
-9.78198 24.7058 41.6111 
-11.3060 25.7836 40.3488 
-12.8310 26.8680 39.0865 
-14.3550 27.9580 37.8242 
-14.3320 28.7100 37.8196 
-15.0820 29.6360 37.1861 
-64.1980 -41.4038 -1.33822 
-62.6180 -40.5991 -0.0849328 
-62.5930 -39.7518 -0.0900960 
-61.7900 -38.9305 0.533975 
-61.7640 -38.0849 0.528821 
-61.7390 -37.2392 0.523668 
-61.7130 -36.3935 0.518515 
-63.2410 -35.4829 -0.745222 
-14.8160 -28.4911 38.2154 
-14.7930 -27.7410 38.2108 
-13.9950 -27.0456 38.8356 
-13.9720 -26.2970 38.8311 
-12.3750 -24.9189 40.0809 
-4.52800 -22.5961 46.3575 
-2.17900 -22.0690 48.2416 
-1.38200 -21.4134 48.8667 
-0.584000 -20.7610 49.4918 
-0.562000 -20.0395 49.4874 
-0.540001 -19.3180 49.4830 
0.257000 -18.6720 50.1081 
0.278999 -17.9521 50.1037 
0.301001 -17.2322 50.0993 
0.323000 -16.5123 50.0950 
0.344999 -15.7925 50.0906 
0.365999 -15.0726 50.0862 
0.388000 -14.3527 50.0818 
0.410000 -13.6328 50.0774 
0.431999 -12.9129 50.0730 
0.454000 -12.1931 50.0686 
0.476000 -11.4732 50.0643 
0.497999 -10.7533 50.0599 
0.520000 -10.0334 50.0555 
-0.233000 -9.21740 49.4214 
-0.211000 -8.49590 49.4170 
-0.188999 -7.77450 49.4126 
-0.167000 -7.05300 49.4082 
-0.145000 -6.33150 49.4039 
-0.124001 -5.61010 49.3995 
-0.101999 -4.88860 49.3951 
-0.0799999 -4.16710 49.3907 
-0.0580006 -3.44560 49.3863 
-0.809999 -2.61370 48.7521 
-0.788000 -1.89060 48.7477 
-0.766001 -1.16760 48.7433 
-0.743999 -0.444500 48.7389 
-0.722000 0.278599 48.7345 
-0.700001 1.00160 48.7301 
-0.677999 1.72470 48.7257 
-0.656000 2.44770 48.7213 
-0.634001 3.17080 48.7169 
-1.38600 4.01870 48.0826 
-1.36400 4.74330 48.0782 
-1.34200 5.46800 48.0738 
-1.32000 6.19260 48.0694 
-1.29800 6.91730 48.0649 
-1.27600 7.64200 48.0605 
-1.25400 8.36660 48.0561 
-1.23200 9.09130 48.0517 
-1.98300 9.95350 47.4174 
-1.96100 10.6797 47.4129 
-1.93900 11.4060 47.4085 
-1.91700 12.1322 47.4041 
-1.89500 12.8585 47.3996 
-1.87300 13.5847 47.3952 
-1.85100 14.3110 47.3908 
-1.82900 15.0372 47.3864 
-1.80700 15.7635 47.3819 
-1.78500 16.4897 47.3775 
-1.76300 17.2160 47.3731 
-1.74100 17.9422 47.3687 
-2.49100 18.8251 46.7342 
-3.24200 19.7112 46.0997 
-3.99300 20.6005 45.4652 
-5.51600 21.6543 44.2006 
-6.26600 22.5516 43.5661 
-7.78900 23.6166 42.3014 
-9.31201 24.6880 41.0367 
-10.8340 25.7657 39.7720 
-12.3560 26.8500 38.5072 
-13.8780 27.9400 37.2424 
-13.8560 28.6920 37.2378 
-13.8330 29.4440 37.2332 
-14.5820 30.3710 36.5985 
-62.8570 -40.5966 -1.37113 
-62.0560 -39.7721 -0.745806 
-61.2540 -38.9508 -0.120503 
-61.2280 -38.1051 -0.125656 
-60.4270 -37.2886 0.499677 
-61.1770 -36.4137 -0.135963 
-13.5880 -29.3091 38.2700 
-14.3410 -28.5091 37.6348 
-13.5430 -27.8120 38.2609 
-13.5200 -27.0635 38.2564 
-13.4970 -26.3149 38.2518 
-12.7000 -25.6243 38.8779 
-11.9020 -24.9368 39.5040 
-7.98400 -23.7592 42.6484 
-4.06600 -22.6136 45.7930 
-2.49500 -22.0190 47.0500 
-1.69800 -21.3617 47.6764 
-0.900999 -20.7077 48.3027 
-0.105000 -20.0568 48.9290 
-0.0830002 -19.3353 48.9246 
-0.0610008 -18.6139 48.9202 
-0.0389996 -17.8924 48.9159 
0.757000 -17.2495 49.5422 
0.778999 -16.5296 49.5379 
0.801001 -15.8097 49.5335 
0.823000 -15.0898 49.5291 
0.844000 -14.3700 49.5247 
0.865999 -13.6501 49.5203 
0.114000 -12.8421 48.8851 
0.136000 -12.1206 48.8807 
0.158001 -11.3991 48.8763 
0.180000 -10.6777 48.8719 
0.202000 -9.95620 48.8675 
0.224001 -9.23470 48.8631 
0.246000 -8.51320 48.8587 
0.268000 -7.79180 48.8543 
0.290001 -7.07030 48.8499 
0.312000 -6.34880 48.8455 
0.334000 -5.62740 48.8411 
-0.417999 -4.80020 48.2057 
-0.396000 -4.07720 48.2013 
-0.374001 -3.35410 48.1969 
-0.351999 -2.63100 48.1925 
-0.330000 -1.90800 48.1881 
-0.308001 -1.18490 48.1837 
-0.285999 -0.461899 48.1793 
-0.264000 0.261200 48.1749 
-1.01500 1.10270 47.5395 
-0.993000 1.82730 47.5350 
-0.971001 2.55200 47.5306 
-0.948999 3.27660 47.5262 
-0.927000 4.00130 47.5218 
-0.905001 4.72600 47.5174 
-0.882999 5.45060 47.5130 
-1.63400 6.30480 46.8774 
-1.61200 7.03110 46.8730 
-1.58900 7.75730 46.8686 
-1.56700 8.48360 46.8642 
-1.54500 9.20980 46.8597 
-1.52300 9.93610 46.8553 
-1.50100 10.6623 46.8509 
-1.47900 11.3885 46.8465 
-1.45700 12.1148 46.8420 
-1.43500 12.8411 46.8376 
-1.41300 13.5673 46.8332 
-1.39100 14.2935 46.8288 
-1.36900 15.0198 46.8243 
-1.34700 15.7461 46.8199 
-2.09600 16.6241 46.1842 
-2.07400 17.3520 46.1798 
-2.05200 18.0798 46.1754 
-2.03000 18.8077 46.1709 
-3.55200 19.8519 44.9039 
-4.30100 20.7427 44.2682 
-5.82200 21.7981 43.0011 
-6.57100 22.6969 42.3653 
-8.09198 23.7634 41.0982 
-8.84100 24.6702 40.4624 
-10.3620 25.7479 39.1952 
-11.8820 26.8320 37.9279 
-13.4020 27.9220 36.6606 
-13.3790 28.6740 36.6561 
-13.3560 29.4260 36.6515 
-14.1050 30.3530 36.0155 
-61.5700 -41.4870 -1.39119 
-60.7700 -40.6625 -0.764673 
-59.9690 -39.8412 -0.138137 
-59.9440 -38.9971 -0.143281 
-59.1430 -38.1805 0.483284 
-58.3430 -37.3672 1.10991 
-58.3170 -36.5262 1.10478 
-58.2920 -35.6853 1.09966 
-13.1370 -30.0756 37.6953 
-13.1140 -29.3271 37.6907 
-13.0910 -28.5785 37.6862 
-13.0690 -27.8300 37.6816 
-13.0460 -27.0814 37.6771 
-12.2490 -26.3891 38.3044 
-12.2270 -25.6422 38.2998 
-10.6560 -25.0141 39.5591 
-9.08600 -24.3923 40.8184 
-5.94700 -23.1679 43.3372 
-2.03400 -22.0364 46.4880 
-1.23900 -21.3791 47.1156 
-0.443001 -20.7250 47.7431 
-0.421000 -20.0019 47.7387 
0.374001 -19.3526 48.3663 
0.396000 -18.6312 48.3619 
0.417999 -17.9097 48.3575 
0.440001 -17.1882 48.3531 
0.462000 -16.4667 48.3487 
0.483999 -15.7453 48.3443 
0.506001 -15.0238 48.3399 
0.528000 -14.3023 48.3355 
0.549999 -13.5808 48.3311 
0.570999 -12.8594 48.3267 
0.593000 -12.1379 48.3223 
0.615000 -11.4164 48.3179 
0.636999 -10.6950 48.3135 
0.659000 -9.97350 48.3092 
0.681000 -9.25200 48.3048 
-0.0699997 -8.43290 47.6682 
-0.0480003 -7.70980 47.6638 
-0.0259991 -6.98680 47.6594 
-0.00399971 -6.26370 47.6550 
0.0179996 -5.54060 47.6506 
0.0400009 -4.81760 47.6462 
0.0620003 -4.09450 47.6418 
0.0839996 -3.37140 47.6374 
0.106001 -2.64840 47.6330 
-0.643999 -1.81330 46.9963 
-0.622000 -1.08870 46.9919 
-0.600000 -0.363998 46.9875 
-0.577999 0.360600 46.9831 
-0.556000 1.08530 46.9787 
-0.534000 1.81000 46.9743 
-0.511999 2.53460 46.9698 
-1.26200 3.38240 46.3331 
-1.24000 4.10860 46.3287 
-1.21800 4.83490 46.3243 
-1.19500 5.56110 46.3198 
-1.17300 6.28740 46.3154 
-1.15100 7.01360 46.3110 
-1.12900 7.73990 46.3066 
-1.10700 8.46610 46.3021 
-1.85700 9.32830 45.6653 
-1.83400 10.0561 45.6609 
-1.81200 10.7839 45.6565 
-1.79000 11.5118 45.6520 
-1.76800 12.2396 45.6476 
-1.74600 12.9675 45.6432 
-1.72400 13.6953 45.6387 
-1.70200 14.4232 45.6343 
-1.68000 15.1510 45.6299 
-1.65700 15.8788 45.6254 
-1.63500 16.6067 45.6210 
-1.61300 17.3345 45.6165 
-2.36200 18.2173 44.9796 
-2.34000 18.9468 44.9752 
-3.08800 19.8344 44.3382 
-4.60800 20.8849 43.0687 
-5.35600 21.7805 42.4317 
-6.87500 22.8422 41.1621 
-7.62300 23.7457 40.5251 
-9.14203 24.8185 39.2555 
-9.89001 25.7300 38.6183 
-11.4080 26.8140 37.3486 
-12.1550 27.7330 36.7115 
-12.1330 28.4840 36.7069 
-12.8800 29.4080 36.0697 
-12.8570 30.1600 36.0651 
-60.2850 -42.3742 -1.40884 
-59.4860 -41.5496 -0.781095 
-59.4600 -40.7055 -0.786239 
-58.6610 -39.8858 -0.158460 
-58.6350 -39.0432 -0.163594 
-57.8360 -38.2283 0.464251 
-57.8100 -37.3873 0.459126 
-57.7840 -36.5464 0.454002 
-12.6630 -30.0936 37.1160 
-12.6400 -29.3450 37.1115 
-12.6170 -28.5965 37.1069 
-12.5940 -27.8479 37.1023 
-12.5720 -27.0994 37.0978 
-11.7760 -26.4070 37.7263 
-10.9800 -25.7179 38.3549 
-10.1850 -25.0319 38.9835 
-8.61700 -24.4101 40.2453 
-5.48100 -23.1855 42.7690 
-3.91400 -22.5828 44.0308 
-2.34700 -21.9865 45.2928 
-1.55200 -21.3275 45.9215 
-0.757999 -20.6718 46.5503 
0.0370007 -20.0193 47.1791 
0.0590000 -19.2962 47.1747 
0.0809994 -18.5732 47.1703 
0.103001 -17.8501 47.1659 
0.896999 -17.2055 47.7948 
0.919001 -16.4840 47.7904 
0.941000 -15.7626 47.7860 
0.962999 -15.0411 47.7816 
0.985001 -14.3196 47.7772 
1.00700 -13.5981 47.7728 
1.02900 -12.8767 47.7684 
1.05100 -12.1552 47.7640 
0.301001 -11.3425 47.1263 
0.323000 -10.6194 47.1219 
0.344999 -9.89640 47.1174 
0.367001 -9.17330 47.1130 
0.389000 -8.45020 47.1086 
0.410999 -7.72720 47.1042 
0.431999 -7.00410 47.0998 
0.454000 -6.28100 47.0954 
-0.295000 -5.45400 46.4576 
-0.273001 -4.72930 46.4532 
-0.250999 -4.00470 46.4488 
-0.229000 -3.28000 46.4444 
-0.207001 -2.55540 46.4399 
-0.184999 -1.83070 46.4355 
-0.163000 -1.10610 46.4311 
-0.141001 -0.381401 46.4267 
-0.118999 0.343300 46.4223 
-0.868000 1.18620 45.7843 
-0.846001 1.91250 45.7799 
-0.823999 2.63870 45.7755 
-0.802000 3.36500 45.7711 
-0.778999 4.09120 45.7666 
-0.757000 4.81750 45.7622 
-0.735001 5.54370 45.7578 
-1.48400 6.39940 45.1198 
-1.46200 7.12730 45.1154 
-1.44000 7.85510 45.1109 
-1.41700 8.58300 45.1065 
-1.39500 9.31080 45.1021 
-1.37300 10.0386 45.0976 
-1.35100 10.7665 45.0932 
-1.32900 11.4943 45.0888 
-1.30700 12.2222 45.0843 
-1.28500 12.9500 45.0799 
-2.03300 13.8232 44.4418 
-2.01100 14.5527 44.4373 
-1.98800 15.2821 44.4329 
-1.96600 16.0116 44.4284 
-1.94400 16.7410 44.4240 
-1.92200 17.4704 44.4195 
-2.67000 18.3548 43.7814 
-2.64700 19.0858 43.7769 
-3.39500 19.9750 43.1387 
-4.14200 20.8673 42.5005 
-5.65900 21.9241 41.2285 
-6.40700 22.8244 40.5902 
-7.15400 23.7279 39.9519 
-8.66998 24.8007 38.6799 
-9.41699 25.7121 38.0415 
-10.1640 26.6270 37.4032 
-10.9110 27.5450 36.7648 
-11.6570 28.4660 36.1264 
-11.6350 29.2160 36.1218 
-11.6120 29.9660 36.1173 
-58.9250 -40.7258 -1.43948 
-58.9000 -39.8817 -1.44463 
-58.1010 -39.0634 -0.815607 
-58.0760 -38.2209 -0.820741 
-57.2770 -37.4075 -0.191654 
-12.2340 -31.6086 36.5458 
-12.2110 -30.8601 36.5413 
-12.1880 -30.1115 36.5367 
-12.1660 -29.3630 36.5322 
-11.3710 -28.6658 37.1619 
-11.3480 -27.9189 37.1574 
-11.3250 -27.1719 37.1528 
-11.3030 -26.4249 37.1483 
-10.5080 -25.7357 37.7781 
-8.94202 -25.1091 39.0423 
-5.01600 -23.2031 42.2008 
-3.45100 -22.6003 43.4651 
-1.88500 -22.0039 44.7295 
-1.09200 -21.3450 45.3595 
-1.07000 -20.6187 45.3551 
-0.275999 -19.9645 45.9851 
-0.254000 -19.2399 45.9807 
0.539000 -18.5905 46.6107 
0.561001 -17.8674 46.6063 
0.583000 -17.1444 46.6019 
0.605000 -16.4213 46.5975 
0.627001 -15.6982 46.5931 
0.649000 -14.9752 46.5887 
0.671000 -14.2521 46.5843 
0.693001 -13.5290 46.5799 
0.715000 -12.8060 46.5755 
0.737000 -12.0829 46.5711 
0.759001 -11.3598 46.5667 
0.781000 -10.6368 46.5623 
0.802999 -9.91370 46.5579 
0.0540009 -9.09470 45.9189 
0.0760002 -8.37000 45.9145 
0.0979996 -7.64540 45.9100 
0.120001 -6.92070 45.9056 
0.142000 -6.19600 45.9012 
0.164000 -5.47140 45.8968 
0.186001 -4.74670 45.8924 
0.208000 -4.02210 45.8880 
0.230000 -3.29740 45.8835 
0.252001 -2.57280 45.8791 
-0.496000 -1.73620 45.2400 
-0.474001 -1.00990 45.2356 
-0.452000 -0.283699 45.2312 
-0.430000 0.442600 45.2267 
-0.408001 1.16880 45.2223 
-0.385000 1.89510 45.2179 
-0.363001 2.62130 45.2135 
-0.341000 3.34760 45.2090 
-0.319000 4.07380 45.2046 
-1.06700 4.92630 44.5654 
-1.04500 5.65410 44.5610 
-1.02300 6.38200 44.5565 
-1.00100 7.10980 44.5521 
-0.978001 7.83770 44.5477 
-1.72600 8.69970 43.9084 
-1.70400 9.42910 43.9039 
-1.68100 10.1586 43.8995 
-1.65900 10.8880 43.8951 
-1.63700 11.6174 43.8906 
-1.61500 12.3469 43.8862 
-1.59300 13.0763 43.8817 
-1.57100 13.8058 43.8773 
-1.54800 14.5352 43.8728 
-2.29500 15.4132 43.2335 
-2.27300 16.1442 43.2290 
-2.25100 16.8752 43.2246 
-2.22900 17.6062 43.2201 
-2.20600 18.3373 43.2157 
-2.95300 19.2248 42.5762 
-3.70000 20.1155 41.9368 
-4.44600 21.0094 41.2973 
-5.19200 21.9065 40.6578 
-5.93800 22.8067 40.0183 
-6.68500 23.7102 39.3788 
-7.43100 24.6168 38.7393 
-8.94501 25.6943 37.4647 
-9.69098 26.6090 36.8251 
-10.4360 27.5270 36.1855 
-10.4140 28.2750 36.1809 
-10.3910 29.0240 36.1764 
-10.3680 29.7720 36.1718 
-11.0110 -32.4185 36.6066 
-11.7600 -31.6266 35.9665 
-11.7370 -30.8780 35.9620 
-11.7140 -30.1295 35.9574 
-10.9200 -29.4307 36.5884 
-10.8970 -28.6837 36.5839 
-10.8750 -27.9368 36.5793 
-10.8520 -27.1898 36.5748 
-10.0590 -26.4990 37.2058 
-9.26501 -25.8113 37.8369 
-8.47198 -25.1269 38.4679 
-6.11500 -23.8300 40.3658 
-2.98800 -22.6178 42.8994 
-2.19500 -21.9541 43.5306 
-0.632000 -21.3624 44.7975 
-0.610001 -20.6361 44.7930 
-0.587999 -19.9099 44.7886 
0.205000 -19.2573 45.4199 
0.226999 -18.5326 45.4155 
0.249001 -17.8079 45.4111 
1.04100 -17.1617 46.0424 
1.06300 -16.4386 46.0380 
1.08500 -15.7156 46.0336 
1.10700 -14.9925 46.0291 
1.12900 -14.2694 46.0247 
0.381001 -13.4600 45.3846 
0.403000 -12.7353 45.3801 
0.424999 -12.0107 45.3757 
0.447001 -11.2860 45.3713 
0.469000 -10.5614 45.3669 
0.490999 -9.83670 45.3625 
0.513000 -9.11200 45.3581 
0.535000 -8.38740 45.3537 
0.556999 -7.66270 45.3492 
0.579000 -6.93810 45.3448 
0.601000 -6.21340 45.3404 
-0.146000 -5.38490 44.7001 
-0.124001 -4.65860 44.6957 
-0.101999 -3.93240 44.6912 
-0.0799999 -3.20610 44.6868 
-0.0580006 -2.47990 44.6824 
-0.0359993 -1.75360 44.6780 
-0.0139999 -1.02740 44.6735 
0.00799942 -0.301102 44.6691 
0.0310001 0.425201 44.6647 
0.0529995 1.15140 44.6603 
-0.694000 1.99750 44.0199 
-0.672001 2.72530 44.0154 
-0.650000 3.45320 44.0110 
-0.628000 4.18100 44.0066 
-0.606001 4.90880 44.0021 
-0.584000 5.63670 43.9977 
-1.33000 6.49390 43.3572 
-1.30800 7.22330 43.3528 
-1.28600 7.95280 43.3483 
-1.26400 8.68220 43.3439 
-1.24100 9.41170 43.3394 
-1.21900 10.1411 43.3350 
-1.96500 11.0095 42.6945 
-1.94300 11.7405 42.6900 
-1.92100 12.4715 42.6856 
-1.89900 13.2025 42.6811 
-1.87700 13.9336 42.6766 
-1.85400 14.6646 42.6722 
-1.83200 15.3956 42.6677 
-1.81000 16.1267 42.6633 
-2.55600 17.0094 42.0227 
-2.53300 17.7420 42.0182 
-2.51100 18.4746 42.0137 
-2.48900 19.2072 42.0093 
-3.23400 20.0979 41.3686 
-3.98000 20.9917 40.7279 
-4.72500 21.8888 40.0872 
-5.47000 22.7890 39.4464 
-6.21500 23.6924 38.8057 
-6.96000 24.5990 38.1649 
-7.70500 25.5088 37.5241 
-8.45001 26.4220 36.8833 
-9.19501 27.3380 36.2425 
-9.17200 28.0850 36.2379 
-9.14899 28.8320 36.2334 
-9.12701 29.5790 36.2288 
-10.5600 -33.1834 36.0331 
-10.5380 -32.4364 36.0286 
-10.5150 -31.6894 36.0240 
-10.4920 -30.9425 36.0195 
-10.4700 -30.1955 36.0149 
-10.4470 -29.4486 36.0104 
-10.4240 -28.7016 36.0058 
-9.63202 -28.0076 36.6381 
-9.60901 -27.2622 36.6335 
-9.58600 -26.5168 36.6290 
-8.02399 -25.8868 37.8981 
-7.23200 -25.2039 38.5304 
-6.43900 -24.5242 39.1628 
-5.64700 -23.8476 39.7951 
-4.08600 -23.2383 41.0644 
-2.52400 -22.6354 42.3336 
-1.73300 -21.9716 42.9661 
-0.941000 -21.3110 43.5985 
-0.149000 -20.6535 44.2310 
-0.127001 -19.9273 44.2266 
-0.105000 -19.2010 44.2221 
0.686001 -18.5500 44.8547 
0.708000 -17.8253 44.8503 
0.730000 -17.1007 44.8458 
0.752001 -16.3760 44.8414 
0.774000 -15.6513 44.8370 
0.796000 -14.9267 44.8326 
0.818001 -14.2020 44.8282 
0.840000 -13.4774 44.8238 
0.862000 -12.7527 44.8193 
0.884001 -12.0280 44.8149 
0.906000 -11.3034 44.8105 
0.927999 -10.5787 44.8061 
0.181999 -9.75980 44.1646 
0.204000 -9.03350 44.1602 
0.226000 -8.30730 44.1558 
0.247999 -7.58100 44.1513 
0.270000 -6.85480 44.1469 
0.292000 -6.12850 44.1425 
0.313999 -5.40230 44.1381 
0.336000 -4.67600 44.1336 
0.358000 -3.94980 44.1292 
0.379999 -3.22350 44.1248 
0.402000 -2.49730 44.1204 
0.424000 -1.77100 44.1159 
-0.322001 -0.931400 43.4743 
-0.299000 -0.203499 43.4699 
-0.277000 0.524300 43.4655 
-0.254999 1.25220 43.4610 
-0.233000 1.98000 43.4566 
-0.211000 2.70790 43.4522 
-0.188999 3.43570 43.4477 
-0.934000 4.28810 42.8060 
-0.912001 5.01750 42.8016 
-0.889999 5.74700 42.7972 
-0.868000 6.47640 42.7927 
-0.846001 7.20590 42.7883 
-1.59100 8.06780 42.1465 
-1.56900 8.79880 42.1421 
-1.54700 9.52990 42.1376 
-1.52400 10.2609 42.1332 
-1.50200 10.9919 42.1287 
-1.48000 11.7230 42.1243 
-1.45800 12.4540 42.1198 
-1.43600 13.1850 42.1154 
-1.41300 13.9160 42.1109 
-2.15800 14.7939 41.4691 
-2.13600 15.5266 41.4646 
-2.11400 16.2592 41.4602 
-2.09100 16.9918 41.4557 
-2.06900 17.7244 41.4512 
-2.81400 18.6119 40.8093 
-2.79100 19.3461 40.8049 
-3.53600 20.2383 40.1629 
-4.28000 21.1337 39.5210 
-4.25800 21.8711 39.5165 
-5.00200 22.7713 38.8745 
-5.74600 23.6747 38.2326 
-6.49000 24.5812 37.5906 
-7.23400 25.4910 36.9485 
-7.21100 26.2350 36.9440 
-7.95500 27.1490 36.3019 
-7.93200 27.8950 36.2974 
-7.91000 28.6400 36.2929 
-7.88700 29.3850 36.2883 
-10.0870 -33.2013 35.4551 
-10.0640 -32.4543 35.4505 
-9.27301 -31.7522 36.0839 
-10.0190 -30.9604 35.4414 
-9.22699 -30.2615 36.0749 
-9.20502 -29.5162 36.0703 
-9.18201 -28.7708 36.0658 
-9.15900 -28.0254 36.0612 
-8.36798 -27.3345 36.6947 
-8.34497 -26.5908 36.6902 
-7.55400 -25.9046 37.3237 
-6.76200 -25.2217 37.9573 
-5.97100 -24.5419 38.5909 
-4.41100 -23.9277 39.8625 
-3.62100 -23.2559 40.4962 
-2.06100 -22.6529 41.7679 
-1.27000 -21.9891 42.4016 
-1.24800 -21.2596 42.3971 
-0.458000 -20.6006 43.0308 
0.333000 -19.9447 43.6645 
0.355000 -19.2184 43.6601 
0.377001 -18.4922 43.6557 
0.399000 -17.7659 43.6513 
0.421000 -17.0397 43.6468 
0.443001 -16.3134 43.6424 
0.465000 -15.5872 43.6380 
0.487000 -14.8609 43.6336 
0.509001 -14.1347 43.6291 
0.531000 -13.4084 43.6247 
0.554001 -12.6822 43.6203 
0.576000 -11.9559 43.6159 
0.598000 -11.2297 43.6114 
0.620001 -10.5034 43.6070 
0.642000 -9.77720 43.6026 
0.664000 -9.05090 43.5982 
0.686001 -8.32470 43.5937 
0.708000 -7.59840 43.5893 
0.730000 -6.87220 43.5849 
0.752001 -6.14590 43.5805 
0.774000 -5.41970 43.5760 
0.796000 -4.69340 43.5716 
0.0510006 -3.86020 42.9288 
0.0730000 -3.13230 42.9244 
0.0949993 -2.40450 42.9199 
0.117001 -1.67670 42.9155 
0.139999 -0.948799 42.9111 
0.162001 -0.221001 42.9066 
0.184000 0.506901 42.9022 
-0.561001 1.35290 42.2593 
-0.539000 2.08230 42.2549 
-0.517000 2.81180 42.2504 
-0.493999 3.54120 42.2460 
-0.472000 4.27060 42.2415 
-0.450001 5.00010 42.2371 
-1.19500 5.85720 41.5942 
-1.17200 6.58820 41.5897 
-1.15000 7.31930 41.5853 
-1.12800 8.05030 41.5808 
-1.10600 8.78130 41.5764 
-1.08300 9.51230 41.5719 
-1.06100 10.2434 41.5674 
-1.80500 11.1133 40.9244 
-1.78300 11.8459 40.9200 
-1.76100 12.5785 40.9155 
-1.73900 13.3111 40.9110 
-1.71600 14.0437 40.9066 
-1.69400 14.7764 40.9021 
-1.67200 15.5090 40.8977 
-2.41500 16.3916 40.2546 
-2.39300 17.1258 40.2501 
-2.37100 17.8600 40.2456 
-2.34900 18.5943 40.2411 
-3.09200 19.4848 39.5980 
-3.07000 20.2206 39.5935 
-3.81300 21.1160 38.9503 
-4.55600 22.0146 38.3072 
-4.53400 22.7536 38.3027 
-5.27700 23.6569 37.6594 
-6.02000 24.5634 37.0162 
-5.99700 25.3056 37.0117 
-6.74000 26.2170 36.3684 
-6.71700 26.9610 36.3639 
-6.69500 27.7040 36.3593 
-7.43800 28.6220 35.7160 
-6.65000 29.1920 36.3503 
-6.62700 29.9360 36.3457 
-9.59100 -32.4722 34.8725 
-8.79999 -31.7701 35.5071 
-8.77802 -31.0248 35.5026 
-8.75500 -30.2794 35.4980 
-7.96400 -29.5837 36.1327 
-7.94200 -28.8399 36.1282 
-7.91900 -28.0961 36.1237 
-7.12900 -27.4068 36.7584 
-7.10600 -26.6646 36.7539 
-6.31600 -25.9800 37.3887 
-5.52600 -25.2986 38.0235 
-4.73500 -24.6204 38.6583 
-3.94500 -23.9454 39.2931 
-3.15500 -23.2735 39.9280 
-1.59800 -22.6704 41.2022 
-0.808001 -22.0065 41.8371 
-0.785999 -21.2771 41.8326 
0.00300026 -20.6180 42.4676 
0.0259991 -19.8902 42.4631 
0.0480003 -19.1623 42.4587 
0.0699997 -18.4345 42.4543 
0.858999 -17.7833 43.0892 
0.881001 -17.0571 43.0848 
0.903000 -16.3308 43.0804 
0.924999 -15.6046 43.0759 
0.948000 -14.8783 43.0715 
0.969999 -14.1521 43.0671 
0.992001 -13.4258 43.0627 
1.01400 -12.6996 43.0582 
1.03600 -11.9733 43.0538 
1.05800 -11.2471 43.0494 
1.08000 -10.5208 43.0450 
1.10200 -9.79460 43.0405 
1.12400 -9.06830 43.0361 
0.379999 -8.24470 42.3922 
0.402000 -7.51680 42.3877 
0.424000 -6.78900 42.3833 
0.445999 -6.06120 42.3789 
0.468000 -5.33330 42.3744 
0.490000 -4.60550 42.3700 
0.511999 -3.87760 42.3655 
0.534000 -3.14980 42.3611 
0.556999 -2.42190 42.3567 
-0.187000 -1.58230 41.7126 
-0.165001 -0.852901 41.7082 
-0.143000 -0.123501 41.7037 
-0.121000 0.605999 41.6993 
-0.0990009 1.33540 41.6948 
-0.0769997 2.06480 41.6904 
-0.820000 2.91560 41.0463 
-0.798000 3.64660 41.0418 
-0.775999 4.37760 41.0373 
-0.754000 5.10870 41.0329 
-0.731001 5.83970 41.0284 
-0.709000 6.57070 41.0240 
-0.687000 7.30170 41.0195 
-1.43000 8.16520 40.3753 
-1.40800 8.89780 40.3709 
-1.38600 9.63040 40.3664 
-1.36300 10.3631 40.3619 
-1.34100 11.0957 40.3575 
-1.31900 11.8283 40.3530 
-1.29700 12.5609 40.3485 
-2.03900 13.4372 39.7042 
-2.01700 14.1714 39.6998 
-1.99500 14.9056 39.6953 
-1.97300 15.6398 39.6908 
-1.95000 16.3740 39.6864 
-1.92800 17.1082 39.6819 
-2.67000 17.9956 39.0375 
-2.64800 18.7314 39.0330 
-2.62600 19.4672 39.0286 
-3.36800 20.3609 38.3842 
-3.34600 21.0983 38.3797 
-4.08800 21.9969 37.7353 
-4.06500 22.7358 37.7308 
-4.80800 23.6391 37.0863 
-4.78500 24.3797 37.0818 
-5.52700 25.2878 36.4373 
-5.50400 26.0300 36.4328 
-6.24600 26.9430 35.7883 
-5.45900 27.5140 36.4237 
-6.20100 28.4300 35.7792 
-6.17800 29.1740 35.7747 
-6.15600 29.9180 35.7702 
-6.13300 30.6620 35.7656 
-8.37299 -33.2787 34.9394 
-8.35101 -32.5334 34.9348 
-8.32800 -31.7880 34.9303 
-8.30499 -31.0426 34.9257 
-7.51600 -30.3453 35.5617 
-7.49300 -29.6015 35.5571 
-6.70300 -28.9089 36.1931 
-6.68100 -28.1667 36.1886 
-6.65800 -27.4246 36.1841 
-5.86900 -26.7383 36.8200 
-5.08000 -26.0553 37.4561 
-4.29000 -25.3755 38.0921 
-3.50100 -24.6988 38.7282 
-2.71200 -24.0253 39.3642 
-1.92400 -23.3551 40.0003 
-1.13500 -22.6880 40.6364 
-1.11300 -21.9569 40.6320 
-0.323999 -21.2946 41.2681 
-0.302000 -20.5652 41.2637 
-0.280001 -19.8357 41.2592 
0.509001 -19.1798 41.8954 
0.531000 -18.4519 41.8910 
0.552999 -17.7241 41.8866 
0.575001 -16.9963 41.8821 
0.597000 -16.2684 41.8777 
0.620001 -15.5406 41.8732 
0.642000 -14.8127 41.8688 
0.664000 -14.0849 41.8644 
0.686001 -13.3570 41.8599 
0.708000 -12.6292 41.8555 
0.730000 -11.9013 41.8511 
0.752001 -11.1735 41.8466 
0.774000 -10.4457 41.8422 
0.797001 -9.71780 41.8378 
0.819000 -8.99000 41.8333 
0.841000 -8.26210 41.8289 
0.863001 -7.53430 41.8245 
0.885000 -6.80640 41.8200 
0.142000 -5.97650 41.1748 
0.164000 -5.24700 41.1703 
0.186001 -4.51760 41.1659 
0.208000 -3.78810 41.1614 
0.230000 -3.05870 41.1570 
0.253000 -2.32930 41.1525 
0.275000 -1.59980 41.1481 
0.297001 -0.870399 41.1437 
-0.445999 -0.0261002 40.4983 
-0.424000 0.705002 40.4939 
-0.400999 1.43600 40.4894 
-0.379000 2.16700 40.4850 
-0.357000 2.89800 40.4805 
-0.334999 3.62910 40.4761 
-0.313000 4.36010 40.4716 
-0.290001 5.09110 40.4672 
-0.268000 5.82220 40.4627 
-1.01000 6.68240 39.8173 
-0.988001 7.41500 39.8128 
-0.966000 8.14770 39.8084 
-0.944000 8.88030 39.8039 
-0.921000 9.61290 39.7994 
-1.66400 10.4827 39.1539 
-1.64100 11.2169 39.1495 
-1.61900 11.9511 39.1450 
-1.59700 12.6853 39.1405 
-1.57400 13.4196 39.1360 
-1.55200 14.1538 39.1316 
-1.53000 14.8880 39.1271 
-2.27100 15.7705 38.4816 
-2.24900 16.5063 38.4771 
-2.22700 17.2421 38.4726 
-2.20400 17.9779 38.4681 
-2.94600 18.8685 37.8225 
-2.92300 19.6059 37.8180 
-2.90100 20.3433 37.8135 
-2.87800 21.0807 37.8090 
-3.62000 21.9791 37.1634 
-3.59700 22.7181 37.1589 
-4.33800 23.6214 36.5132 
-4.31600 24.3620 36.5086 
-4.29300 25.1026 36.5041 
-5.03400 26.0120 35.8584 
-5.01200 26.7540 35.8539 
-4.98900 27.4970 35.8494 
-4.96600 28.2390 35.8449 
-5.70700 29.1560 35.1991 
-5.68400 29.9000 35.1946 
-5.66200 30.6440 35.1900 
-7.90100 -33.2966 34.3625 
-7.11200 -32.5944 34.9997 
-7.09000 -31.8506 34.9952 
-6.30100 -31.1532 35.6323 
-6.27800 -30.4111 35.6278 
-6.25600 -29.6689 35.6233 
-6.23300 -28.9267 35.6187 
-5.44500 -28.2373 36.2559 
-5.42200 -27.4967 36.2514 
-4.63400 -26.8120 36.8887 
-3.84600 -26.1306 37.5259 
-3.82300 -25.3932 37.5214 
-3.03500 -24.7165 38.1587 
-2.24700 -24.0429 38.7960 
-2.22500 -23.3087 38.7916 
-1.43700 -22.6400 39.4289 
-0.649000 -21.9744 40.0662 
-0.627001 -21.2434 40.0618 
0.160000 -20.5827 40.6992 
0.183001 -19.8532 40.6947 
0.205000 -19.1238 40.6903 
0.226999 -18.3943 40.6858 
0.249001 -17.6649 40.6814 
0.271000 -16.9355 40.6769 
0.294001 -16.2060 40.6725 
0.316000 -15.4766 40.6681 
0.337999 -14.7472 40.6636 
0.360001 -14.0177 40.6592 
0.382000 -13.2883 40.6547 
0.403999 -12.5589 40.6503 
0.427000 -11.8294 40.6458 
0.448999 -11.1000 40.6414 
0.471001 -10.3706 40.6369 
0.493000 -9.64110 40.6325 
0.514999 -8.91170 40.6280 
0.537001 -8.18220 40.6236 
0.559999 -7.45280 40.6192 
0.582001 -6.72340 40.6147 
0.604000 -5.99390 40.6103 
0.625999 -5.26450 40.6058 
0.648001 -4.53510 40.6014 
-0.0939999 -3.69870 39.9549 
-0.0720005 -2.96770 39.9504 
-0.0489998 -2.23670 39.9460 
-0.0270004 -1.50570 39.9415 
-0.00499916 -0.774601 39.9371 
0.0170002 -0.0435982 39.9326 
0.0389996 0.687401 39.9282 
0.0620003 1.41850 39.9237 
0.0839996 2.14950 39.9192 
-0.658001 3.00170 39.2726 
-0.635000 3.73440 39.2682 
-0.613001 4.46700 39.2637 
-0.591000 5.19960 39.2593 
-0.569000 5.93220 39.2548 
-0.546000 6.66480 39.2503 
-0.524000 7.39750 39.2459 
-1.26500 8.26250 38.5992 
-1.24300 8.99670 38.5947 
-1.22100 9.73090 38.5902 
-1.19800 10.4651 38.5857 
-1.17600 11.1993 38.5813 
-1.15400 11.9335 38.5768 
-1.13100 12.6677 38.5723 
-1.87200 13.5455 37.9256 
-1.85000 14.2813 37.9211 
-1.82800 15.0171 37.9166 
-1.80500 15.7529 37.9121 
-1.78300 16.4887 37.9076 
-2.52300 17.3760 37.2608 
-2.50100 18.1134 37.2563 
-2.47800 18.8508 37.2518 
-2.45600 19.5882 37.2473 
-2.43400 20.3256 37.2428 
-3.17400 21.2224 36.5960 
-3.15100 21.9614 36.5915 
-3.12900 22.7004 36.5870 
-3.10700 23.4394 36.5825 
-3.84600 24.3442 35.9355 
-3.82400 25.0848 35.9310 
-3.80200 25.8254 35.9265 
-4.54100 26.7370 35.2795 
-4.51900 27.4790 35.2750 
-4.49600 28.2210 35.2705 
-4.47400 28.9630 35.2660 
-4.45100 29.7050 35.2614 
-5.19100 30.6260 34.6144 
-5.16800 31.3700 34.6099 
-5.14500 32.1140 34.6054 
-5.88500 33.0410 33.9583 
-8.21698 -34.0199 33.1474 
-6.66400 -33.3560 34.4286 
-6.64100 -32.6122 34.4241 
-5.85300 -31.9132 35.0625 
-5.83100 -31.1710 35.0579 
-5.80800 -30.4289 35.0534 
-5.02100 -29.7362 35.6918 
-4.99800 -28.9956 35.6873 
-4.21100 -28.3077 36.3258 
-4.18800 -27.5687 36.3213 
-4.16600 -26.8297 36.3168 
-3.37800 -26.1482 36.9553 
-2.59100 -25.4699 37.5938 
-2.56900 -24.7341 37.5893 
-1.78200 -24.0605 38.2278 
-1.76000 -23.3263 38.2234 
-0.973000 -22.6576 38.8619 
-0.951000 -21.9249 38.8575 
-0.164000 -21.2609 39.4961 
-0.142000 -20.5299 39.4916 
-0.118999 -19.7989 39.4871 
-0.0970001 -19.0679 39.4827 
-0.0750008 -18.3368 39.4782 
-0.0529995 -17.6058 39.4738 
0.733999 -16.9530 40.1124 
0.756001 -16.2235 40.1080 
0.778000 -15.4941 40.1035 
0.799999 -14.7647 40.0991 
0.822001 -14.0352 40.0947 
0.844000 -13.3058 40.0902 
0.867001 -12.5763 40.0858 
0.889000 -11.8469 40.0813 
0.910999 -11.1175 40.0769 
0.933001 -10.3880 40.0724 
0.955000 -9.65860 40.0680 
0.214001 -8.83350 39.4203 
0.236000 -8.10240 39.4159 
0.257999 -7.37140 39.4114 
0.280001 -6.64040 39.4070 
0.302999 -5.90940 39.4025 
0.325001 -5.17830 39.3981 
0.347000 -4.44730 39.3936 
0.368999 -3.71630 39.3891 
0.392000 -2.98520 39.3847 
0.414000 -2.25420 39.3802 
0.436001 -1.52320 39.3758 
0.458000 -0.792198 39.3713 
-0.283001 0.0536995 38.7235 
-0.260000 0.786301 38.7191 
-0.238001 1.51890 38.7146 
-0.216000 2.25150 38.7101 
-0.193001 2.98420 38.7057 
-0.171000 3.71680 38.7012 
-0.149000 4.44940 38.6968 
-0.889000 5.30800 38.0489 
-0.867001 6.04220 38.0444 
-0.844999 6.77640 38.0399 
-0.822001 7.51060 38.0354 
-0.799999 8.24490 38.0310 
-0.778000 8.97910 38.0265 
-0.754999 9.71330 38.0220 
-1.49500 10.5846 37.3741 
-1.47300 11.3204 37.3696 
-1.45100 12.0562 37.3651 
-1.42800 12.7920 37.3606 
-1.40600 13.5278 37.3561 
-1.38400 14.2636 37.3517 
-1.36100 14.9994 37.3472 
-2.10100 15.8835 36.6991 
-2.07800 16.6209 36.6946 
-2.05600 17.3583 36.6901 
-2.03400 18.0957 36.6856 
-2.01100 18.8331 36.6812 
-1.98900 19.5705 36.6767 
-1.96600 20.3079 36.6722 
-2.70600 21.2047 36.0241 
-2.68300 21.9437 36.0196 
-2.66100 22.6827 36.0151 
-2.63800 23.4217 36.0106 
-3.37700 24.3265 35.3624 
-3.35500 25.0670 35.3579 
-3.33200 25.8076 35.3534 
-3.31000 26.5480 35.3489 
-4.04800 27.4610 34.7006 
-4.02600 28.2030 34.6961 
-4.00300 28.9450 34.6916 
-3.98100 29.6870 34.6871 
-4.71900 30.6080 34.0388 
-4.69700 31.3520 34.0343 
-5.43500 32.2770 33.3860 
-5.41200 33.0230 33.3815 
-6.91200 34.1380 32.0894 
-7.65000 35.0730 31.4410 
-9.14801 36.1990 30.1489 
-10.6470 37.3320 28.8567 
-9.29498 -34.7081 31.2856 
-7.74300 -34.0378 32.5693 
-5.38300 -31.9310 34.4881 
-4.59600 -31.2351 35.1277 
-4.57400 -30.4945 35.1232 
-4.55100 -29.7539 35.1187 
-3.76500 -29.0644 35.7584 
-3.74200 -28.3254 35.7539 
-2.95600 -27.6407 36.3936 
-2.93400 -26.9033 36.3891 
-2.91100 -26.1659 36.3846 
-2.12500 -25.4875 37.0243 
-2.10300 -24.7517 37.0199 
-1.31700 -24.0782 37.6596 
-1.29400 -23.3439 37.6552 
-0.509001 -22.6751 38.2950 
-0.486000 -21.9425 38.2905 
-0.464001 -21.2099 38.2860 
0.320999 -20.5474 38.9259 
0.344000 -19.8164 38.9214 
0.365999 -19.0854 38.9170 
0.388000 -18.3544 38.9125 
0.410000 -17.6233 38.9081 
0.433001 -16.8923 38.9036 
0.455000 -16.1613 38.8991 
0.476999 -15.4303 38.8947 
0.499001 -14.6992 38.8902 
0.521999 -13.9682 38.8858 
0.544001 -13.2372 38.8813 
0.566000 -12.5061 38.8769 
0.587999 -11.7751 38.8724 
0.610001 -11.0441 38.8680 
0.632999 -10.3130 38.8635 
0.655001 -9.58200 38.8590 
0.677000 -8.85100 38.8546 
0.698999 -8.12000 38.8501 
0.721001 -7.38890 38.8457 
0.743999 -6.65790 38.8412 
0.766001 -5.92690 38.8368 
0.0259991 -5.09220 38.1878 
0.0480003 -4.35960 38.1834 
0.0699997 -3.62700 38.1789 
0.0930004 -2.89440 38.1744 
0.115000 -2.16170 38.1700 
0.136999 -1.42910 38.1655 
0.159000 -0.696499 38.1610 
0.181999 0.0360985 38.1566 
0.204000 0.768700 38.1521 
-0.535999 1.61930 37.5030 
-0.513000 2.35350 37.4986 
-0.490999 3.08780 37.4941 
-0.469000 3.82200 37.4896 
-0.445999 4.55620 37.4851 
-0.424000 5.29040 37.4807 
-0.402000 6.02460 37.4762 
-0.379000 6.75880 37.4717 
-1.11900 7.62370 36.8226 
-1.09600 8.35950 36.8181 
-1.07400 9.09540 36.8136 
-1.05200 9.83120 36.8091 
-1.02900 10.5670 36.8046 
-1.00700 11.3028 36.8002 
-0.983999 12.0386 36.7957 
-0.962000 12.7744 36.7912 
-1.70100 13.6536 36.1419 
-1.67800 14.3910 36.1375 
-1.65600 15.1284 36.1330 
-1.63400 15.8658 36.1285 
-1.61100 16.6032 36.1240 
-1.58900 17.3406 36.1195 
-1.56600 18.0780 36.1150 
-1.54400 18.8154 36.1105 
-2.28200 19.7090 35.4612 
-2.26000 20.4480 35.4567 
-2.23700 21.1870 35.4522 
-2.21500 21.9260 35.4477 
-2.19200 22.6650 35.4432 
-2.17000 23.4040 35.4387 
-2.14800 24.1430 35.4342 
-2.88500 25.0493 34.7847 
-2.86300 25.7899 34.7802 
-2.84000 26.5300 34.7757 
-3.57800 27.4430 34.1263 
-3.55600 28.1850 34.1218 
-3.53300 28.9280 34.1172 
-3.51100 29.6700 34.1127 
-4.24800 30.5900 33.4632 
-4.22500 31.3340 33.4587 
-4.96300 32.2600 32.8092 
-5.70000 33.1880 32.1597 
-6.43700 34.1200 31.5101 
-7.93400 35.2410 30.2155 
-9.43103 36.3690 28.9209 
-10.9270 37.5030 27.6262 
-11.6640 38.4530 26.9765 
-8.81897 -34.7260 30.7051 
-7.27000 -34.0557 31.9913 
-5.72100 -33.3917 33.2774 
-4.93500 -32.6910 33.9183 
-4.15000 -31.9935 34.5591 
-4.12700 -31.2529 34.5546 
-3.34100 -30.5601 35.1955 
-3.31900 -29.8211 35.1910 
-2.53400 -29.1332 35.8319 
-2.51100 -28.3958 35.8274 
-2.48900 -27.6584 35.8229 
-2.46600 -26.9210 35.8184 
-1.68100 -26.2410 36.4594 
-1.65900 -25.5052 36.4549 
-0.874001 -24.8300 37.0959 
-0.851999 -24.0958 37.0914 
-0.829000 -23.3615 37.0870 
-0.806999 -22.6273 37.0825 
-0.0219994 -21.9601 37.7235 
0.00000 -21.2275 37.7191 
0.0219994 -20.4948 37.7146 
0.0450001 -19.7622 37.7101 
0.0669994 -19.0296 37.7057 
0.0890007 -18.2970 37.7012 
0.111000 -17.5643 37.6967 
0.134001 -16.8317 37.6923 
0.156000 -16.0991 37.6878 
0.177999 -15.3665 37.6834 
0.201000 -14.6339 37.6789 
0.223000 -13.9012 37.6744 
0.245001 -13.1686 37.6700 
0.267000 -12.4360 37.6655 
0.290001 -11.7034 37.6610 
0.312000 -10.9708 37.6566 
0.334000 -10.2381 37.6521 
0.356001 -9.50550 37.6476 
0.379000 -8.77290 37.6432 
0.400999 -8.04030 37.6387 
0.423000 -7.30770 37.6342 
0.445000 -6.57500 37.6298 
0.468000 -5.84240 37.6253 
0.490000 -5.10980 37.6209 
0.511999 -4.37720 37.6164 
0.535000 -3.64450 37.6119 
-0.204000 -2.80360 36.9617 
-0.181999 -2.06930 36.9572 
-0.160000 -1.33510 36.9527 
-0.136999 -0.600899 36.9483 
-0.115000 0.133301 36.9438 
-0.0930004 0.867500 36.9393 
-0.0699997 1.60170 36.9348 
-0.0480003 2.33590 36.9304 
-0.0259991 3.07020 36.9259 
-0.00399971 3.80440 36.9214 
-0.742001 4.66290 36.2711 
-0.719999 5.39870 36.2666 
-0.697001 6.13450 36.2621 
-0.674999 6.87030 36.2576 
-0.652000 7.60610 36.2531 
-0.629999 8.34190 36.2487 
-0.608000 9.07770 36.2442 
-0.584999 9.81350 36.2397 
-1.32300 10.6864 35.5893 
-1.30100 11.4238 35.5848 
-1.27900 12.1612 35.5803 
-1.25600 12.8986 35.5758 
-1.23400 13.6360 35.5713 
-1.21100 14.3734 35.5668 
-1.18900 15.1108 35.5623 
-1.16600 15.8482 35.5578 
-1.90400 16.7353 34.9073 
-1.88100 17.4743 34.9028 
-1.85900 18.2133 34.8983 
-1.83700 18.9523 34.8938 
-1.81400 19.6913 34.8893 
-1.79200 20.4303 34.8848 
-1.76900 21.1693 34.8803 
-1.74700 21.9083 34.8758 
-1.72400 22.6473 34.8713 
-2.46100 23.5504 34.2206 
-2.43900 24.2909 34.2161 
-2.41600 25.0315 34.2116 
-2.39400 25.7721 34.2071 
-2.37100 26.5130 34.2026 
-3.10800 27.4250 33.5519 
-3.08500 28.1680 33.5474 
-3.06300 28.9100 33.5429 
-3.79900 29.8290 32.8922 
-3.77700 30.5730 32.8876 
-4.51300 31.4960 32.2369 
-5.24900 32.4230 31.5861 
-5.98600 33.3530 30.9354 
-6.72200 34.2870 30.2846 
-8.21698 35.4100 28.9875 
-9.71100 36.5390 27.6904 
-11.2060 37.6750 26.3933 
-11.9410 38.6260 25.7424 
-13.4350 39.7730 24.4452 
-14.1710 40.7310 23.7942 
-16.8230 -37.3939 23.0310 
-14.5120 -36.7266 24.9659 
-12.2020 -36.0690 26.9010 
-8.34399 -34.7440 30.1246 
-6.79700 -34.0736 31.4132 
-5.25000 -33.4095 32.7018 
-3.70300 -32.7518 33.9905 
-3.68000 -32.0112 33.9860 
-2.89600 -31.3168 34.6281 
-2.11100 -30.6257 35.2702 
-2.08900 -29.8883 35.2657 
-2.06600 -29.1509 35.2612 
-1.28200 -28.4661 35.9034 
-1.26000 -27.7302 35.8989 
-1.23700 -26.9944 35.8945 
-1.21500 -26.2586 35.8900 
-1.19300 -25.5228 35.8855 
-0.409000 -24.8476 36.5277 
-0.386000 -24.1134 36.5232 
-0.364000 -23.3791 36.5188 
-0.341999 -22.6449 36.5143 
-0.319000 -21.9107 36.5098 
-0.297001 -21.1765 36.5053 
-0.275000 -20.4423 36.5009 
0.509001 -19.7798 37.1432 
0.531000 -19.0472 37.1387 
0.552999 -18.3145 37.1342 
0.576000 -17.5819 37.1298 
0.598000 -16.8493 37.1253 
0.620001 -16.1167 37.1208 
0.642000 -15.3841 37.1164 
0.665001 -14.6514 37.1119 
0.687000 -13.9188 37.1075 
0.709000 -13.1862 37.1030 
0.732000 -12.4536 37.0985 
0.754000 -11.7209 37.0941 
0.775999 -10.9883 37.0896 
0.0380001 -10.1633 36.4382 
0.0599995 -9.42910 36.4337 
0.0820007 -8.69490 36.4293 
0.105000 -7.96070 36.4248 
0.127001 -7.22640 36.4203 
0.149000 -6.49220 36.4158 
0.172001 -5.75800 36.4114 
0.194000 -5.02380 36.4069 
0.216000 -4.28960 36.4024 
0.239000 -3.55540 36.3980 
0.261000 -2.82120 36.3935 
0.283001 -2.08690 36.3890 
0.305000 -1.35270 36.3845 
0.327999 -0.618500 36.3801 
0.350000 0.115700 36.3756 
-0.388000 0.966202 35.7241 
-0.365000 1.70200 35.7196 
-0.343000 2.43780 35.7151 
-0.320000 3.17360 35.7106 
-0.298000 3.90940 35.7061 
-0.275999 4.64520 35.7016 
-0.253000 5.38100 35.6972 
-0.231001 6.11680 35.6927 
-0.209000 6.85270 35.6882 
-0.945999 7.71910 35.0366 
-0.923000 8.45650 35.0321 
-0.900999 9.19390 35.0276 
-0.878000 9.93130 35.0231 
-0.856001 10.6687 35.0186 
-0.834000 11.4061 35.0141 
-0.811001 12.1435 35.0096 
-0.789000 12.8809 35.0051 
-0.766001 13.6183 35.0006 
-1.50300 14.5006 34.3489 
-1.48100 15.2396 34.3444 
-1.45800 15.9786 34.3399 
-1.43600 16.7176 34.3354 
-1.41300 17.4566 34.3309 
-1.39100 18.1956 34.3264 
-1.36800 18.9346 34.3219 
-1.34600 19.6736 34.3174 
-2.08200 20.5703 33.6656 
-2.06000 21.3109 33.6610 
-2.03700 22.0514 33.6565 
-2.01500 22.7920 33.6520 
-1.99200 23.5326 33.6475 
-1.96900 24.2732 33.6430 
-1.94700 25.0138 33.6385 
-1.92400 25.7544 33.6340 
-2.66000 26.6650 32.9821 
-2.63800 27.4080 32.9776 
-2.61500 28.1500 32.9730 
-2.59300 28.8920 32.9685 
-3.32800 29.8110 32.3166 
-4.06400 30.7330 31.6646 
-4.04100 31.4780 31.6601 
-4.77600 32.4050 31.0081 
-5.51100 33.3360 30.3561 
-7.00400 34.4540 29.0566 
-8.49701 35.5780 27.7570 
-9.98999 36.7090 26.4575 
-11.4820 37.8460 25.1578 
-12.2170 38.7990 24.5057 
-12.9510 39.7540 23.8535 
-14.4430 40.9070 22.5538 
-15.1770 41.8710 21.9016 
-26.3320 -40.1518 14.0351 
-16.3360 -37.4123 22.4369 
-14.0290 -36.7449 24.3755 
-12.4830 -36.0521 25.6665 
-10.1760 -35.4023 27.6052 
-6.32400 -34.0915 30.8351 
-4.77800 -33.4273 32.1262 
-3.23400 -32.7696 33.4174 
-2.45000 -32.0736 34.0607 
-2.42700 -31.3346 34.0562 
-0.882999 -30.6911 35.3474 
-1.62200 -29.9059 34.6951 
-0.837999 -29.2195 35.3385 
-0.816000 -28.4837 35.3340 
-0.794001 -27.7479 35.3295 
-0.771000 -27.0121 35.3250 
-0.749001 -26.2763 35.3205 
0.0340004 -25.5994 35.9640 
0.0569992 -24.8652 35.9595 
