ply
format ascii 1.0
comment Created by CloudCompare v2.11 alpha (Anoia)
comment Created 9/2/19 6:24 PM
obj_info Generated by CloudCompare!
element vertex 1887
property float x
property float y
property float z
end_header
1097.65 102.271 -19.3683 
1090.12 25.5375 -5.24442 
1090.6 36.4951 -7.62426 
1095.25 37.5445 20.2996 
1092.58 56.6208 -11.2325 
1108.4 2.70599 -31.2975 
1096.88 94.7885 -17.2685 
1096.72 18.4803 -10.4623 
1092.51 53.6684 10.8038 
1095.45 88.8997 4.37354 
1094.7 20.3651 -8.6361 
1092.31 67.319 6.92486 
1100.98 41.4835 24.5887 
1089.8 26.6911 -5.10099 
1092.36 51.4416 -8.70508 
1102.26 61.2985 23.8956 
1091.97 58.5514 -9.06346 
1103.59 23.2615 5.91938 
1097.77 102.653 -28.8506 
1094.52 76.8691 -13.1033 
1097.57 7.4699 -32.5428 
1092.69 49.4352 -24.7869 
1109.51 84.7342 4.8979 
1093.82 74.8693 -27.09 
1098.82 14.2039 -10.5641 
1113.23 102.791 -25.1999 
1090.02 25.4409 -3.08276 
1090.61 36.4919 -5.38954 
1089.84 36.5241 -13.0746 
1096.83 92.733 -15.139 
1110.97 103.936 -26.8422 
1091.7 54.5417 -7.01589 
1091.81 56.5491 -6.89858 
1090.17 38.7204 -29.2834 
1098.88 95.0087 -14.6486 
1097.24 84.2325 6.36721 
1095.63 84.8601 2.45031 
1089.8 30.805 -4.99761 
1090.61 40.4217 -7.34562 
1094.41 67.2658 -27.0195 
1097.76 58.9108 22.1164 
1104.6 65.0548 23.1568 
1115.84 102.518 -21.1115 
1089.3 20.7148 -25.0494 
1104.9 85.0373 5.115 
1097.26 54.8419 21.4559 
1090.09 46.6067 4.63333 
1097.06 32.4382 8.83295 
1099.69 13.6439 -9.806 
1096.56 12.0435 -29.6584 
1099.12 51.3229 21.6991 
1093.91 76.9993 -29.1132 
1109.18 90.8885 1.23692 
1091.98 57.1615 10.8716 
1094.62 74.8333 -33.2559 
1093.06 54.9149 18.8831 
1092.11 58.8684 18.8934 
1092.5 56.7493 -15.2828 
1091.85 52.9755 14.8912 
1103.36 86.62 3.72163 
1095.8 92.5801 -18.9811 
1092.7 60.9961 5.15764 
1111.21 88.753 3.27442 
1099.63 84.3644 6.63759 
1091.43 50.8744 4.74016 
1114.19 103.234 -23.9888 
1089.65 24.6692 -9.22182 
1100.97 42.8455 24.605 
1093.07 60.8866 -25.0585 
1099.01 100.895 -35.2148 
1105.32 75.0047 22.5178 
1090.02 30.7604 -24.9462 
1091.34 38.8762 12.9867 
1097.62 79.2832 20.8625 
1099.4 94.508 -11.1781 
1099.1 82.333 17.1057 
1091.99 56.5604 -27.2064 
1090.81 34.622 -25.3778 
1091.97 56.7901 12.8999 
1100.39 103.396 -24.1532 
1092.52 54.9938 -13.3584 
1096.64 91.1345 -33.1665 
1093.8 68.9527 17.0078 
1091.38 40.8676 16.8675 
1089.58 24.8543 -30.9883 
1091.04 38.9169 -18.7483 
1093.5 46.885 20.8306 
1097.38 100.734 -27.0797 
1130.66 100.168 -26.9148 
1103.18 72.8367 22.6509 
1097.49 82.4647 10.7362 
1094.89 84.7626 -19.3125 
1093.86 74.6379 -16.9528 
1090.12 35.1564 -25.1999 
1091.74 52.6256 16.6395 
1101.51 82.6957 14.8749 
1092.07 60.8088 5.0427 
1101.47 67.0975 21.6063 
1091.8 54.8994 14.7469 
1113.24 101.328 -17.0389 
1105.25 82.8463 15.2003 
1090.07 39.0941 -25.0354 
1107.2 96.4964 -5.51132 
1093.01 22.2943 -6.94944 
1097.57 66.7827 20.8829 
1091.19 44.766 -27.2407 
1095.35 42.7427 22.6702 
1103.27 47.0706 24.5558 
1099.59 53.0079 24.6522 
1109.51 98.4808 -10.858 
1089.29 18.7676 -23.1791 
1089.32 22.593 -19.1183 
1104.82 9.2828 -24.3478 
1092.47 54.9292 -7.08954 
1104.79 93.4167 -2.78246 
1093.97 84.7447 -8.87288 
1091.93 54.8951 16.8661 
1096.48 20.0774 -8.41035 
1110.9 100.889 -17.2313 
1103.3 85.107 5.1939 
1107.63 97.4638 -14.3789 
1093.21 22.6519 -4.95641 
1091.19 45.0898 14.8834 
1093.8 74.7385 -1.00193 
1090.68 16.2665 -24.6992 
1094.17 82.634 -14.9683 
1092.66 43.2384 -25.5982 
1089.8 30.8643 -7.00237 
1090.69 40.8117 -1.22474 
1091.09 40.8054 -27.2214 
1096.95 83.0348 18.4524 
1105.87 80.8061 18.7115 
1089.95 36.8887 -21.2518 
1102.83 49.0572 24.7948 
1093.75 72.578 -9.14745 
1094.66 80.7952 -11.2424 
1097.1 98.8605 -27.1709 
1091.22 13.3784 -31.02 
1095.97 95.9549 -27.1791 
1091.76 44.7209 18.7689 
1101.43 65.3076 21.7922 
1097.29 56.917 22.2349 
1094.65 78.6557 -2.99932 
1090.91 42.6657 -19.0076 
1092.85 30.7669 5.49246 
1096.26 101.764 -21.1276 
1096.85 96.9413 -29.0524 
1089.67 24.7475 -24.9014 
1094.81 84.7697 -17.0387 
1087.9 19.4701 -21.2761 
1090.6 34.3216 -11.3197 
1092.9 27.4656 5.92413 
1089.57 14.8335 -15.2991 
1099.39 82.9798 8.90076 
1101.17 78.6795 18.9163 
1093.58 62.787 18.9309 
1102.99 58.6968 23.4765 
1093.9 78.5952 -7.06384 
1091.23 48.5395 -13.3224 
1089.9 34.8236 -19.2344 
1090.08 46.732 -11.5493 
1101.32 44.9775 24.5628 
1091.29 48.6605 4.85914 
1092.39 53.319 8.76303 
1095.48 88.737 -9.19611 
1099.32 94.6538 -13.0548 
1099.54 82.6639 13.1546 
1092.01 56.5478 -23.3874 
1099.18 83.1753 7.02279 
1097.32 44.5851 22.8475 
1096.94 86.941 8.29943 
1101.5 66.847 22.5858 
1089.69 33.0454 -33.0194 
1097.72 62.3957 22.1958 
1094.54 78.8176 -16.8724 
1100.54 103.492 -26.9677 
1105.51 9.57809 -29.2853 
1092.51 54.6228 -11.1645 
1095.49 46.6073 22.4477 
1092.6 58.7549 -2.99185 
1106.06 83.5883 12.7389 
1090.07 38.5641 -27.5564 
1093.37 32.8339 6.85829 
1108.99 104.367 -20.4665 
1090.88 44.3612 -15.098 
1089.27 15.0132 -25.171 
1099.34 82.5625 15.051 
1092.74 60.99 -0.895081 
1095.3 36.5065 16.6978 
1092.64 56.9225 -7.31534 
1093.79 72.4995 -11.0694 
1107.27 95.4297 -9.25844 
1095.14 12.7043 -30.8903 
1094.68 80.7333 -9.18528 
1097.35 98.6877 -33.217 
1096.07 96.6215 -25.2166 
1095.62 90.9863 -23.1325 
1092.7 59.005 4.86666 
1111.34 87.2003 5.06899 
1103.16 65.1318 22.8171 
1098.92 100.73 -27.7379 
1093.05 66.7651 1.11452 
1097.43 100.736 -20.9951 
1095.99 99.138 -22.9649 
1092.65 60.8175 7.03185 
1095.73 92.9113 -21.008 
1091.79 40.9505 18.8888 
1097.34 36.8285 20.6212 
1105.15 94.7735 -1.19056 
1105.68 75.5498 21.3823 
1090.05 30.8047 -26.9621 
1091.08 46.6766 -15.2224 
1094.67 78.9437 -23.1231 
1103.91 92.7475 -2.44607 
1093.63 12.5858 -11.6 
1094.17 85.5152 -5.40249 
1099.05 26.9681 6.30574 
1100.72 11.0571 -18.2953 
1090.95 44.6158 -7.0944 
1092.18 61.4704 19.1955 
1093.95 74.5277 -11.1941 
1103.37 38.5393 21.727 
1099.77 61.5351 21.828 
1103.23 82.0542 17.3195 
1101.27 58.7421 23.2027 
1101.18 48.764 24.7789 
1093.45 56.7776 20.358 
1090.92 41.0289 6.73701 
1104.09 38.8943 22.4318 
1099.62 60.3818 22.3011 
1093.68 76.9202 -34.359 
1109.89 90.0384 5.99293 
1102.99 44.6837 22.8794 
1099.08 12.6504 -11.3933 
1099.47 50.8764 23.1959 
1093.59 61.0335 18.9271 
1095.12 86.7726 -20.9054 
1094.42 75.0144 -16.3717 
1092.81 63.0873 9.1444 
1107.32 84.9245 8.90282 
1097.07 98.9031 -29.1638 
1093.78 72.7441 -7.02521 
1089.66 18.1553 -32.8027 
1091.07 38.9038 -27.1578 
1095.27 88.6518 -5.0825 
1103.02 98.6937 -13.4495 
1093.65 10.8499 -23.5894 
1097.53 8.84149 -30.9233 
1094.72 82.7329 -9.22156 
1092.8 58.7643 -20.9572 
1089.38 20.5948 -17.2349 
1089.96 36.8734 -3.30229 
1095.38 80.7576 4.86267 
1094.52 74.5711 -4.7072 
1095.44 10.4349 -27.3071 
1103.26 84.5157 12.552 
1101.11 52.5769 24.4121 
1091.24 45.0603 12.8969 
1093.76 74.853 0.994181 
1092.9 50.6968 -32.7517 
1090.11 40.3749 -11.2883 
1095.34 76.7706 17.1267 
1090.68 34.6497 -23.1764 
1092.03 56.9572 18.6693 
1093.49 68.7158 15.0453 
1095.23 25.148 4.72294 
1090.99 44.6687 -19.4043 
1106.22 96.5676 -3.34679 
1110.85 83.9708 6.43483 
1093.29 30.8216 6.56222 
1094.6 78.8846 -5.19975 
1090.92 42.6604 -17.0833 
1092.01 58.5293 -28.9904 
1091.52 50.4999 -17.0115 
1096.75 92.3955 0.371872 
1091.04 26.8693 3.05364 
1105.18 71.977 24.4536 
1103.16 104.532 -35.4349 
1089.96 28.7998 -22.9891 
1105.49 92.9915 -1.22319 
1107.47 78.9957 20.5812 
1094.64 77.5533 -18.8785 
1092.84 64.8876 10.7946 
1095.48 88.9416 -19.3001 
1092.78 60.8649 -22.8366 
1093.54 48.8365 20.9382 
1099.88 85.6853 3.60385 
1091.37 50.6102 -7.10614 
1091.95 58.5566 -11.1084 
1101.38 60.8145 22.8842 
1094.83 76.8524 -33.0832 
1101.42 29.2087 8.85394 
1091.71 50.8264 -30.9126 
1093.2 38.8768 20.569 
1099.78 104.205 -34.3882 
1093.27 62.8293 -32.9597 
1106.61 98.5653 -6.81956 
1093.76 72.8644 -5.01625 
1089.47 22.6531 -17.3444 
1089.86 30.6646 -14.984 
1096.91 16.5894 -10.9616 
1089.93 34.9223 0.770766 
1097.28 54.849 22.3756 
1105.36 84.8883 6.85183 
1115.23 102.574 -22.3122 
1089.5 20.5902 -15.2785 
1096.98 49.5291 21.3925 
1097.19 80.9691 12.6105 
1099.25 102.753 -23.3072 
1093.12 68.8808 6.8785 
1105.53 95.1442 -4.76913 
1091.52 52.9831 -1.26721 
1093.55 70.8171 12.9671 
1097.35 92.4725 2.80112 
1090.05 44.7914 -1.38233 
1095.51 72.8469 18.8914 
1094.57 75.0127 -27.1125 
1092.81 62.6789 3.02194 
1095.1 86.8475 -15.1938 
1107.41 85.0062 7.01015 
1095.51 60.9478 20.6267 
1108.09 86.0343 10.9299 
1092.84 56.9685 -31.2266 
1104.14 87.9857 8.00396 
1091.63 54.8153 -1.34474 
1095.39 58.738 20.7402 
1090.02 45.9654 -0.733035 
1095.17 70.7534 18.8201 
1109.2 86.5036 8.762 
1093.82 72.8619 -22.9901 
1090.12 40.5763 -29.2932 
1089.5 18.6421 -30.9446 
1091.77 50.9421 10.918 
1091.37 38.7986 8.68848 
1092.51 51.0723 17.1856 
1095.32 86.7221 -0.996658 
1091.43 48.8302 -29.4264 
1094.12 76.711 16.4088 
1093.14 36.7223 18.7996 
1091.59 50.7361 -19.2013 
1093.41 21.3398 -7.01618 
1090.91 12.6515 -22.8857 
1094.85 75.0326 14.9935 
1092.86 60.3418 -12.9549 
1094.73 78.9299 -6.93294 
1090.83 42.483 -15.0308 
1093.79 86.4138 -2.19653 
1099.32 41.4001 22.9669 
1103.46 66.8961 22.9897 
1101.34 38.5129 23.0298 
1089.94 36.8354 -9.03203 
1089.29 20.8545 -23.0322 
1099.17 47.3621 21.5879 
1090.73 40.7334 -13.2823 
1099.55 64.665 21.4114 
1103.24 86.6163 9.00606 
1101 54.3973 24.4153 
1092.94 62.6906 -8.92736 
1089.96 36.4979 -29.636 
1096.27 94.1387 -35.1509 
1097.3 78.814 17.0649 
1090.46 29.2332 -24.8339 
1103.44 76.9141 22.407 
1105.2 80.8549 17.0234 
1089.97 37.0448 -23.297 
1101.12 91.1656 -0.994429 
1091.37 46.7965 10.9381 
1097.33 50.9193 22.8065 
1089.76 32.7231 -17.1926 
1099.14 100.555 -36.7925 
1094.91 26.809 5.0736 
1090.26 47.1306 -24.9917 
1097.13 32.8843 10.5065 
1096.77 88.6219 10.8015 
1099.92 95.7586 -11.6369 
1094.38 65.4536 -30.1865 
1093.22 66.6403 -6.94009 
1093.17 64.6647 -18.9851 
1094.52 76.8574 2.65033 
1095.2 16.5551 -11.5119 
1091.14 22.414 -10.9568 
1097.25 76.9445 19.0052 
1101.66 84.3925 10.6277 
1090.09 38.7291 -9.14455 
1099.48 93.167 -5.02672 
1090.91 42.7421 8.79391 
1090.78 40.8575 4.48658 
1089.65 30.649 -16.8175 
1091.58 50.8042 -27.1189 
1094.77 77.0691 -28.8112 
1099.32 92.6106 -1.34392 
1097.57 92.4394 -5.14548 
1089.91 34.8306 -1.13577 
1103.12 102.572 -18.9523 
1093.63 50.8159 20.8264 
1098.88 78.763 17.1948 
1090.25 43.2546 -27.6696 
1093 64.5793 -11.109 
1092.77 57.0423 -21.1529 
1106.41 87.5592 1.65598 
1100.15 10.2769 -21.5682 
1107.4 88.8166 1.16437 
1092.84 38.6704 14.7876 
1094.16 74.9252 16.7854 
1090.1 43.8904 -24.9276 
1097.04 31.0203 7.14487 
1094.22 91.7236 -3.06638 
1090.93 44.7728 -1.21615 
1096.02 79.8192 18.67 
1107.39 80.5606 18.6696 
1105.44 96.5979 -13.2164 
1095.13 34.9167 12.5929 
1090.98 42.9785 2.55121 
1099.44 82.8675 10.9114 
1092.61 54.824 -8.9514 
1101.26 103.334 -21.4435 
1091.96 58.6264 2.74715 
1092.9 62.7028 -20.8642 
1107.79 98.7 -11.3101 
1091.35 48.6221 -19.1814 
1112.88 90.5736 3.15637 
1091.03 38.8204 6.79005 
1107.95 78.7004 21.9627 
1092.75 64.9867 9.11014 
1094.54 76.7994 -17.5467 
1092.74 56.5718 10.7719 
1101.12 100.548 -17.0583 
1092.59 43.267 19.0208 
1096.53 11.3539 -33.433 
1091.52 50.6731 -15.155 
1096.6 92.3979 -1.38397 
1105.39 87.0003 3.25635 
1095.54 78.79 16.9336 
1089.47 22.8515 -22.9874 
1107.09 82.718 16.5365 
1105.4 98.7574 -15.2236 
1093.94 90.8209 -1.55708 
1091.18 46.8793 0.982342 
1095.07 86.8062 -19.0496 
1103.46 95.222 -11.1954 
1101.58 84.3763 8.69553 
1105.21 82.4255 16.5313 
1090.02 39.1454 -23.0804 
1113.03 88.5374 4.45096 
1097.6 77.0388 20.1878 
1089.72 30.8181 -3.06936 
1098.21 28.8752 5.80798 
1090.63 40.6934 -5.35619 
1090.54 38.6532 -11.1875 
1089.3 18.7729 -17.1571 
1091.1 46.64 -7.04862 
1099.36 70.9131 21.1284 
1092.03 63.9184 -4.26644 
1092.65 58.64 -10.8673 
1103.5 94.6265 -9.00429 
1089.54 24.9274 -23.0783 
1107.87 90.6098 -0.306954 
1092.58 56.9488 -0.958896 
1119.74 102.467 -28.5709 
1093.06 64.6577 -14.8769 
1095.61 88.8025 -33.1416 
1094.8 82.8421 -16.9613 
1102.77 28.4582 7.28108 
1098.19 21.6479 -2.00659 
1097.55 52.6413 22.5309 
1100.21 91.3371 -3.09162 
1090.68 39.0509 2.83972 
1093.38 68.41 -14.8351 
1101.47 92.7598 -3.04006 
1091.28 48.6346 -17.0452 
1093.81 78.8664 -3.01701 
1094.57 78.6104 -11.2463 
1091.16 42.6836 -27.257 
1094.84 82.8839 -11.3293 
1103.46 96.471 -11.474 
1103.27 93.1447 -4.48528 
1093.7 70.6146 14.8689 
1094.23 85.2071 1.18991 
1098.76 26.4846 5.48303 
1093.13 68.8298 2.96919 
1089.84 34.7875 -13.1812 
1094.58 72.7981 -32.9844 
1089.66 26.5673 -15.2631 
1091.66 23.0839 -6.91172 
1089.3 16.6843 -19.119 
1090.04 30.6441 -29.0703 
1095.89 54.9086 22.3633 
1089.47 22.7044 -25.0447 
1097.51 40.8009 22.6128 
1089.88 26.963 -1.03999 
1101.56 88.6051 4.76697 
1092.09 59.062 10.6588 
1095.5 84.3876 4.52507 
1097.56 84.5941 4.42985 
1093.52 68.7187 -22.8792 
1087.83 14.694 -19.021 
1091.06 46.7732 2.92786 
1099.1 28.7827 6.60082 
1089.89 26.758 -32.5861 
1101.55 92.9521 -5.60152 
1097.08 92.3712 -3.42387 
1090.7 38.9865 0.906197 
1094.61 64.818 17.8286 
1090.03 36.8731 0.806357 
1091.59 52.6326 -7.16802 
1094.46 71.1836 -29.0327 
1091.31 48.7664 -3.25965 
1093.15 62.9825 -28.9154 
1092.67 55.384 4.80544 
1097.23 90.897 -3.23309 
1098.79 101.024 -29.4891 
1093.17 66.8748 -1.04595 
1091.98 21.2766 -8.09802 
1099.21 42.882 23.0301 
1093.3 12.6496 -26.9628 
1095.16 78.9751 8.94551 
1090.94 42.8654 0.608367 
1095.11 21.2906 -1.03273 
1092.8 52.7528 18.7624 
1089.36 15.0401 -27.2195 
1091.11 46.6075 -9.12758 
1089.89 28.8198 0.880887 
1101.25 13.2583 -8.98923 
1091.95 54.7257 -21.2027 
1093.91 76.7622 10.8285 
1095.81 88.646 -34.8461 
1090.26 43.335 -29.5828 
1092.95 64.5592 -4.94627 
1095.8 92.7381 -15.4758 
1092.72 60.7832 9.10224 
1093.36 68.8674 -0.964045 
1106.3 95.6504 -12.7795 
1091.44 46.76 -29.2953 
1095.47 45.3846 21.5431 
1091.14 48.6964 -1.25512 
1106.01 90.6883 -0.575125 
1101.49 44.5085 23.0581 
1091.02 46.4777 -11.3753 
1092.51 56.8153 1.04099 
1102.58 103.16 -36.1913 
1105.42 95.2389 -10.8122 
1092.62 55.1275 -23.0861 
1095.25 30.8725 6.79502 
1091.51 38.8622 14.8838 
1094.86 84.7938 -2.98802 
1111.55 104.294 -17.0567 
1091.84 54.8633 2.68287 
1094.63 80.88 -19.1768 
1097.01 89.0532 -1.15501 
1110.12 103.268 -23.2053 
1093.61 35.1258 10.535 
1103.75 96.7681 -14.5416 
1094.93 82.7951 0.849651 
1092.04 58.8437 12.9546 
1090.54 32.8829 -29.0798 
1109.13 92.6865 -0.561409 
1096.31 103.081 -19.6229 
1097.11 96.9549 -34.7233 
1105.58 74.0819 24.3508 
1090.05 30.7947 -22.8433 
1091.96 56.7973 14.7941 
1090.74 34.8459 -27.2521 
1103.47 77.1521 19.6982 
1092.15 63.0008 19.1567 
1090.5 29.0276 -28.6262 
1094.01 76.5359 -14.8904 
1093.12 62.908 -30.7766 
1095.65 80.7001 14.6648 
1097.15 99.0215 -25.1671 
1091.86 52.9154 -29.205 
1101.28 102.91 -33.3023 
1092.49 54.8953 -5.46133 
1099.39 44.7141 23.3049 
1092.37 52.8865 -8.8657 
1091.86 62.2809 -8.64533 
1093.64 72.8395 -1.0851 
1096.16 96.0882 -35.4725 
1095.39 88.4797 -13.1531 
1092.43 52.9438 -3.924 
1090.61 28.6126 -5.33171 
1093.11 36.4954 11.0673 
1106.63 77.605 21.0095 
1095.03 86.6795 -9.28221 
1092.67 26.1769 3.48347 
1110.03 94.6458 0.0256543 
1090.85 34.9364 -31.1916 
1089.88 38.9801 -21.2068 
1090.87 41.0154 2.46092 
1099.46 86.8686 3.11942 
1089.78 30.6941 -10.881 
1097.38 58.6024 21.4735 
1094.55 67.3688 -32.9251 
1089.68 24.61 -15.1356 
1097.39 84.9063 3.00193 
1093.67 68.8187 -25.0282 
1090.05 32.8536 2.77107 
1092.58 59.0681 -1.16003 
1095.74 90.6773 -25.0723 
1093.69 74.9554 2.83721 
1091.81 58.674 -3.42611 
1091.08 44.9052 10.7427 
1100.69 83.5191 7.10491 
1095.59 86.8152 -31.0664 
1090.12 37.4106 -33.0673 
1093.03 62.591 -13.1689 
1094.36 13.4126 -25.1951 
1107.14 94.7889 -2.55509 
1094.79 80.6461 -2.83845 
1097.47 98.8443 -35.0926 
1092.27 63.1214 6.94416 
1093.8 72.6123 -16.9385 
1092.79 64.7834 7.10364 
1095.46 89.0241 -23.0696 
1089.89 28.6878 -30.8226 
1101.28 49.1044 22.9417 
1092.21 70.7038 -0.469862 
1091.26 48.8941 0.832959 
1095.9 94.749 -22.8322 
1091.63 46.8525 -32.5939 
1106.74 9.9689 -21.8788 
1091.2 41.0593 12.7859 
1097.08 73.2238 19.4618 
1090.22 34.1782 -31.2017 
1094.53 69.2665 -33.0467 
1101.6 76.7262 20.7018 
1091.17 40.7779 -32.7452 
1089.76 30.7456 0.781864 
1099.28 46.5434 24.6053 
1090.53 40.5713 -9.00361 
1097.75 23.5244 0.766496 
1096.88 51.4709 21.2389 
1110.67 102.028 -13.5335 
1091.23 47.0172 8.79407 
1090.8 12.4086 -19.055 
1092.79 20.5204 -10.8756 
1089.78 32.8898 -3.29678 
1096.8 34.1165 11.0511 
1099.07 18.1757 -8.99107 
1092.98 60.8791 -32.9755 
1099.17 37.5236 21.9594 
1103.03 70.8275 22.6356 
1095.93 92.6821 -29.0226 
1093.79 61.0595 20.3879 
1091.65 50.97 -29.0228 
1094.76 76.8937 -31.0277 
1092.63 52.9583 -28.878 
1096.99 81.1507 10.8762 
1115.58 101.909 -32.4996 
1097.65 39.1442 22.0584 
1089.09 20.8337 -20.9405 
1096.77 94.9594 -33.1385 
1095.35 86.7996 -29.1586 
1092.96 62.599 -15.1208 
1089.88 26.7153 -6.80937 
1093.62 72.9523 11.0005 
1092.06 62.7774 2.95177 
1096.78 20.0803 -6.70227 
1101.28 52.9869 23.357 
1103.4 84.8641 6.83045 
1107.47 96.8778 -12.9746 
1092.95 22.8406 1.04216 
1095.98 92.8901 -31.0726 
1093.95 72.9182 -33.3661 
1107.15 100.829 -16.7874 
1099.22 102.599 -29.4237 
1092.64 60.678 -6.9201 
1093.12 66.769 13.033 
1090.53 36.9851 -1.10949 
1093.25 36.8279 16.5612 
1097.78 80.6985 19.9816 
1093.51 52.8739 20.6938 
1095.45 21.0455 -2.98285 
1096.84 96.9235 -25.1462 
1091.23 40.7209 -29.1118 
1093.77 70.8305 -23.1048 
1093.86 72.9111 16.8362 
1090.87 40.5572 -19.5149 
1099.47 46.7068 23.3299 
1102.25 85.9054 12.6558 
1095.29 82.8 -33.2304 
1102.69 27.5388 8.74576 
1095.4 88.7745 -15.1188 
1093.16 66.6859 -5.12874 
1090.95 36.795 -31.2563 
1097.04 96.8181 -33.1481 
1091.8 52.7875 10.7889 
1093.33 70.7857 8.98662 
1093.94 76.8127 0.93744 
1096 90.6153 -35.0485 
1094.27 69.7486 19.4636 
1094.61 78.9595 -20.956 
1091.08 36.8871 -25.3605 
1089.63 16.9403 -31.0627 
1100.74 37.5282 22.4024 
1090.02 38.5724 -13.0049 
1094.85 84.5591 -7.07107 
1087.88 15.0682 -23.1612 
1091.33 46.8662 -25.1717 
1101.59 94.2398 -3.62592 
1089.36 20.7288 -30.8718 
1091.06 46.6718 -13.2064 
1101.49 90.4465 6.79977 
1096.53 88.2496 -34.7361 
1096.01 94.7944 -19.2996 
1089.44 12.9126 -27.1196 
1093.25 40.7941 20.719 
1091.67 53.0309 4.95399 
1093.55 70.8786 -1.32439 
1093.25 66.8587 14.9698 
1096.89 96.7848 -31.0527 
1092.69 50.908 -29.1744 
1090.01 40.7442 -22.9586 
1091.04 38.7096 -31.1733 
1089.31 18.8603 -29.0738 
1095.48 90.8149 -21.0637 
1092.56 58.977 3.0003 
1090.59 30.6037 -31.3221 
1089.85 34.8262 -3.20368 
1095.15 80.7011 -33.3186 
1091.86 54.8346 10.9057 
1092.15 63.9816 -6.44551 
1092.92 59.0419 -32.9042 
1094.61 78.8906 2.84759 
1090.79 42.5561 -9.21665 
1094.59 35.1581 16.8161 
1103.13 68.8709 22.9782 
1107.58 98.764 -15.0379 
1110.54 100.93 -12.8682 
1091.77 37.1274 16.6796 
1097.3 19.9831 -5.22171 
1091.69 49.0394 -32.6676 
1093.25 36.745 14.5537 
1090.69 32.9778 -31.1235 
1093.62 70.6003 -15.0233 
1091.57 52.922 2.89337 
1089.96 36.3525 -17.2689 
1101.31 9.47683 -29.0721 
1091.46 47.1417 14.7627 
1105.01 80.2403 19.9098 
1089.83 37.2255 -19.1044 
1092.78 57.081 -32.8775 
1095.52 63.0081 20.7733 
1103.81 88.7705 6.54345 
1091.81 55.0124 8.91596 
1095.21 80.7575 -34.8438 
1093.03 66.8607 6.97272 
1096.9 40.6056 21.3968 
1092.37 55.2194 8.79163 
1097.39 90.6135 0.459178 
1107.04 86.257 9.02838 
1092.75 57.0861 -29.1385 
1103.49 74.8165 22.5695 
1094.55 78.8023 -9.08905 
1091.23 42.7946 -29.2608 
1099.43 58.8781 22.6786 
1093.55 68.7969 -30.9753 
1096.86 70.8631 19.4551 
1091.9 50.7475 18.8432 
1091.53 12.8637 -13.6289 
1092.81 62.9348 13.1413 
1101.16 50.7434 24.6503 
1093.51 54.8215 20.6121 
1094.12 79.0847 0.772617 
1091.37 48.7685 -21.3239 
1112.62 98.7518 -12.4272 
1101.6 94.259 -5.20281 
1089.28 20.8228 -29.0204 
1091.4 42.8798 -32.6895 
1093.49 68.6384 -19.0749 
1103.55 91.721 0.41577 
1091.88 58.5692 -16.8944 
1089.91 30.671 -19.051 
1091.18 40.8077 10.6074 
1090.03 34.9974 -32.635 
1094.54 68.7381 -30.9395 
1089.86 32.6047 -9.07718 
1097.49 74.7358 20.4882 
1094.95 78.8505 -33.1269 
1091.13 42.9394 10.8224 
1098.11 91.9271 4.39849 
1099.15 93.2142 -11.1141 
1105.86 88.534 6.01911 
1094.33 65.2576 -32.5711 
1090.1 46.4076 0.983465 
1095.7 71.3806 20.3565 
1097.56 33.0874 12.931 
1093.07 12.8253 -31.2485 
1090.59 36.9616 2.8912 
1100.98 82.7536 16.9255 
1109.17 100.872 -13.5852 
1090.39 24.4661 -31.0321 
1095.95 92.7711 -33.1827 
1093.93 76.8486 4.81011 
1095.88 90.8654 -31.2053 
1093.14 66.5032 -12.9296 
1092.99 66.9196 11.0307 
1097.21 10.0175 -29.15 
1091.34 38.8549 16.7336 
1097.53 46.5917 22.8507 
1092.64 55.1247 -32.8219 
1091.96 60.7753 2.65417 
1092.42 53.105 3.09624 
1095.44 88.5891 -2.95052 
1087.75 13.6089 -20.9243 
1090.99 44.9413 4.89312 
1095.1 56.7158 19.6741 
1103.64 104.227 -33.4855 
1095.44 84.7789 -33.1525 
1101.47 84.3809 12.6518 
1089.93 38.9186 -19.1393 
1092.15 66.7401 3.30564 
1103.55 95.0038 -6.93147 
1103.36 90.7709 0.850208 
1091.15 34.6652 4.9565 
1103.66 105.949 -21.0728 
1089.76 30.7031 -8.70107 
1090.67 40.7803 -3.33494 
1089.99 36.424 -7.10606 
1091.64 52.4238 -15.1002 
1091.73 51.102 14.6311 
1110 102.974 -25.7074 
1093.5 34.6841 8.60362 
1097.16 88.8058 0.815823 
1091.84 54.5862 -16.8067 
1101.77 103.804 -20.0576 
1094.9 80.8514 -28.8859 
1096.78 93.2538 -35.0902 
1092.95 60.7448 -30.859 
1091.17 40.8192 -31.1013 
1095.42 92.138 -5.07897 
1094.03 80.6442 -11.1666 
1092.1 61.1039 10.6621 
1093.74 74.7623 -3.00352 
1087.99 12.8392 -16.7325 
1091.43 44.7823 16.7764 
1095.23 86.8104 -25.3317 
1092.86 63.0334 5.12601 
1095.32 57.4465 22.155 
1089.9 28.8396 -29.0936 
1090.71 28.3817 -3.21456 
1093.21 36.462 12.8252 
1094.45 70.3157 -23.5722 
1097.06 86.9599 1.05748 
1095.1 86.7692 -7.09515 
1092.7 53.147 16.7401 
1095.17 20.8537 -6.90269 
1095.38 88.433 -1.19296 
1095.25 82.8518 -34.8329 
1101.43 86.9568 3.36055 
1089.77 26.9 -27.1735 
1089.68 26.6803 -29.137 
1101.17 93.3445 -8.74574 
1094.72 55.3725 19.7163 
1101.07 28.7476 6.87682 
1091.74 50.8826 -32.4373 
1093.11 38.4275 18.7832 
1099.61 102.304 -17.8191 
1095.42 40.914 22.5893 
1093 60.9707 -26.8654 
1094.75 74.8878 -31.1439 
1091.88 56.5483 -19.3038 
1091.32 48.915 6.75117 
1091.25 46.656 -21.2443 
1103.08 65.8471 24.6098 
1094.29 87.2462 -8.82814 
1099.53 40.6229 24.1231 
1099.17 77.1177 19.2811 
1099.62 94.4858 -9.45703 
1097.33 78.6306 19.0646 
1107.86 99.4294 -9.21276 
1094.41 38.6536 21.8964 
1093.12 62.9085 -27.0353 
1095.23 84.7753 -29.1561 
1092.28 63.3145 -25.6236 
1109.17 87.1064 3.38914 
1101.46 88.8012 1.40254 
1092.72 58.658 -29.2509 
1095.5 84.9297 0.809643 
1092.2 65.2304 -14.9618 
1092.88 58.7069 -25.2031 
1093.38 64.9673 -28.9438 
1090.12 42.7565 -21.1366 
1101.44 104.677 -21.6388 
1095.08 80.8464 -31.2822 
1098.87 40.7002 21.7817 
1109.64 102.949 -26.4462 
1092.91 34.539 7.15312 
1093.42 68.3951 -10.7544 
1105.61 95.2452 -6.995 
1095.15 82.7524 -30.9626 
1090.88 36.8211 -29.3199 
1089.45 16.9035 -27.1651 
1093.76 74.7883 -5.03315 
1092.19 60.9293 12.8965 
1090.06 40.7533 -25.2255 
1091.06 38.9624 -25.303 
1089.32 18.8912 -27.3322 
1092.95 56.8369 18.8832 
1099.43 80.5985 16.6012 
1095.1 34.5252 10.6668 
1091.05 42.8655 4.55008 
1091.35 48.6932 -15.2215 
1095.08 86.5571 -11.1606 
1089.32 14.9942 -29.2226 
1090.62 32.6815 -23.1792 
1092.04 58.7778 15.0038 
1092.6 58.8789 7.03609 
1095.7 90.729 -17.1629 
1097.4 94.632 -15.1396 
1089.3 16.8548 -21.165 
1092.87 62.5415 -6.94227 
1089.98 36.6285 -27.351 
1101.38 72.393 22.4632 
1094.14 82.7153 -12.8117 
1089.62 22.8156 -30.9129 
1090.79 38.8679 4.71885 
1092.97 62.85 -22.897 
1094.49 75.084 -18.5483 
1092.75 62.9453 11.218 
1095.21 86.9013 -23.2297 
1092.13 62.8648 5.39546 
1093.46 72.937 8.99272 
1091.54 28.8496 4.77959 
1092.26 63.9797 -8.55334 
1092.84 58.8781 -30.9447 
1090.63 28.5421 1.10786 
1092.85 36.4298 8.70395 
1095.08 86.8063 -3.0184 
1094.83 88.6515 2.00918 
1092.44 52.7339 12.8251 
1094.38 19.8315 -11.032 
1091.43 30.7644 4.77151 
1092.96 62.6106 -17.0955 
1090.03 26.9064 1.0968 
1090.99 44.8181 2.82815 
1101.11 92.8557 -6.71626 
1089.78 26.8182 -30.8873 
1092.53 55.018 13.1608 
1101.11 102.642 -19.4136 
1096.86 90.7066 -11.1406 
1091.28 42.807 -31.1253 
1099.19 59.6076 24.3745 
1093.55 68.7987 -20.8567 
1091.32 36.8938 6.67784 
1095.51 12.5877 -11.5979 
1095.01 80.8586 2.76802 
1097.12 98.7971 -21.2398 
1092.03 62.7272 -2.84658 
1093.58 72.7542 0.640026 
1096.16 96.5371 -29.0061 
1092.76 60.9068 -2.90886 
1095.81 92.6025 -26.9306 
1101.07 104.341 -27.4299 
1094.77 80.9188 -21.0833 
1091.62 54.5271 -9.18174 
1101.38 96.772 -13.2752 
1091.73 62.212 -4.15464 
1093.68 72.7835 2.87271 
1090.96 46.6958 4.95488 
1095.06 74.9462 17.0177 
1090.08 42.2524 -11.0981 
1093.32 64.8656 -26.9125 
1094.06 11.0713 -31.2048 
1090.04 37.1121 -25.4206 
1092.83 62.8373 -5.0928 
1091.37 38.8788 10.7263 
1094.44 69.1007 -29.2779 
1096.79 96.7889 -18.9209 
1097.24 98.6932 -19.1584 
1095.68 80.6873 12.9706 
1092.55 56.9359 -17.0058 
1092.64 53.1979 -25.0216 
1095.5 33.6329 16.7554 
1097.1 81.1219 14.8914 
1097.46 48.7305 22.551 
1095.69 90.7005 -15.1467 
1110.97 94.3013 0.909261 
1091.94 48.855 18.7006 
1092.58 50.926 -30.6641 
1090.06 40.6723 -8.97078 
1098.08 42.5488 23.985 
1095.87 76.6511 18.5238 
1092.96 64.6954 2.93607 
1094.69 76.9687 -26.8099 
1097.24 92.3676 -7.23631 
1105.17 94.6633 -3.0172 
1093.21 68.8345 9.0839 
1112.68 85.2652 5.67213 
1091.29 40.834 14.9332 
1097.31 72.7557 20.5225 
1091.42 46.7474 -27.2564 
1095.43 44.8128 22.2998 
1089.75 28.8402 -1.11813 
1091.75 54.345 -23.0808 
1091.65 58.522 0.854109 
1091.06 45.1807 7.00973 
1093.74 74.9428 7.04212 
1093.77 64.9082 18.8303 
1101.42 94.8894 -11.3691 
1092 56.9407 5.0412 
1097.59 82.6064 6.99163 
1090.04 30.675 2.80365 
1091.58 50.9053 -21.2343 
1092.35 21.0995 -12.6741 
1091.45 12.3484 -20.9444 
1105.79 97.144 -4.45522 
1090.83 44.4577 -9.23223 
1102.99 79.3263 17.7873 
1092 61.4399 16.9353 
1093.93 74.6015 -9.15152 
1092.75 64.9462 4.87172 
1095.65 89.023 -29.0329 
1095.18 84.7899 -1.05339 
1094.72 79.3697 -18.887 
1101.52 74.6144 22.241 
1090.16 32.6723 -31.2723 
1093.14 68.9396 4.88778 
1108.54 98.3512 -7.98724 
1095.25 50.9307 21.1101 
1095.6 86.7811 -33.2592 
1092.9 62.7208 -18.8139 
1093.76 74.9625 4.93819 
1091.78 58.5218 -1.17951 
1091.09 44.81 8.81169 
1091.75 52.7574 -27.1875 
1089.51 22.8412 -29.3206 
1095.75 80.5651 9.00194 
1097.2 98.9049 -23.3911 
1100.97 39.3945 23.9383 
1089.9 36.4948 -10.9307 
1093.45 70.7777 7.0026 
1091.44 52.9644 -2.99111 
1097.46 22.6685 -0.740833 
1091.05 46.8611 6.90392 
1097.98 98.5721 -14.8967 
1094.83 12.8532 -12.7512 
1094.76 80.7651 0.780533 
1090.55 32.6977 -25.2662 
1092.06 59.0991 16.7215 
1092.51 56.8087 -13.2565 
1092.75 58.9265 9.08789 
1095.56 90.7735 -19.2049 
1092.67 55.1665 -29.1236 
1092.07 61.2733 7.31046 
1095.06 86.6772 -5.11821 
1101.34 70.2978 22.4774 
1090.01 32.9993 -22.9812 
1091.55 46.86 -31.128 
1102.99 32.1346 10.5558 
1091.16 14.2885 -25.155 
1107.03 96.7171 -7.07083 
1090.94 43.1672 6.80893 
1099.07 92.6796 -7.21034 
1093.96 67.3275 18.8295 
1091.82 57.0425 6.96741 
1097.52 82.1863 13.0717 
1090.08 43.2699 -31.2664 
1093.06 64.6242 -7.11974 
1091.48 50.8573 -2.96585 
1092.73 60.6704 -5.0061 
1099.17 102.825 -27.148 
1105.94 85.442 3.59382 
1089.38 20.7704 -27.1603 
1092.44 52.8206 -23.0455 
1095.18 32.3998 7.42082 
1097.17 81.1949 8.93301 
1089.82 30.725 -1.17872 
1097.18 28.9064 6.74494 
1090.76 40.7259 -11.0041 
1101.34 38.202 21.0642 
1089.91 36.6746 -14.9162 
1093.36 70.9358 4.93273 
1091.77 52.9913 6.87465 
1093.89 76.985 2.95893 
1099.72 80.6095 20.367 
1094.21 79.327 16.0433 
1095.9 90.7235 -33.2283 
1093.08 66.7335 -3.16064 
1092.56 57.0105 7.0041 
1091.24 44.9859 -23.348 
1095.02 78.9577 10.9849 
1090.78 42.7518 -1.38675 
1094.89 34.0997 8.96602 
1103.23 100.93 -17.1549 
1089.93 32.7249 0.9549 
1091.86 62.8507 -1.45989 
1093.57 72.9777 7.0767 
1096.69 47.1622 21.1815 
1092.71 55.0273 -27.1405 
1099.58 68.9405 21.2779 
1092.84 60.764 -20.7731 
1092.76 62.7202 1.00853 
1094.48 74.9893 -24.9275 
1090.09 42.7184 -6.78007 
1105.26 102.538 -18.7757 
1090.59 34.7465 -15.0259 
1089.9 27.3389 4.10611 
1097.25 92.7075 -13.3137 
1089.85 30.1127 4.09511 
1099.41 48.4749 24.5035 
1091.56 50.602 -23.1605 
1089.99 36.7339 -5.21335 
1091.69 52.5883 -16.996 
1091.67 34.8598 6.66832 
1091.29 49.0068 2.75171 
1091.29 24.6707 -3.06516 
1098.9 30.7212 7.25886 
1091.91 56.5234 -11.2291 
1092.72 62.9025 -0.953695 
1094.55 74.8438 -23.0555 
1099.01 104.532 -29.4167 
1093.99 78.0908 8.78037 
1100.76 56.6061 24.2478 
1103.27 80.6332 18.7171 
1089.9 26.8136 -8.78798 
1091.06 46.7515 -1.15685 
1099.01 91.0612 -0.685619 
1097.23 82.9805 4.97031 
1094.11 63.3594 20.8661 
1094.74 75.1103 -29.1874 
1091.83 56.5676 -17.0653 
1090.03 43.2785 -32.7619 
1093.14 64.4773 -16.8417 
1095.56 88.6985 -31.0235 
1091.32 50.395 -13.2227 
1093.36 42.8975 20.8844 
1092.61 58.9811 -5.15115 
1095.71 90.8809 -29.0391 
1094.6 78.7202 -0.945813 
1091.08 42.793 -21.1091 
1098.52 99.1604 -34.1024 
1095.33 29.0328 5.65207 
1102.79 103.68 -30.7873 
1089.94 34.6728 -21.1135 
1090.76 34.8948 -29.2678 
1090.45 29.2967 -26.4604 
1103.51 76.5687 21.1059 
1094.01 76.4979 -13.0855 
1091.03 40.9645 8.76 
1099.71 87.4826 1.77365 
1089.9 30.8175 -20.7509 
1095.91 26.9359 6.02431 
1092.99 66.8313 5.07951 
1098.89 101.23 -31.1248 
1091.22 14.4345 -13.4202 
1104.52 29.0828 8.50296 
1095.73 90.5268 -7.41478 
1093.94 78.6425 -8.94862 
1099.22 89.1478 1.32033 
1103.91 104.174 -24.9805 
1105.07 73.3692 22.4791 
1089.87 28.6313 -25.0579 
1093 67.087 8.98227 
1090.86 42.5607 -13.0939 
1094.95 79.0289 6.82526 
1095.36 88.7865 -17.2412 
1102.99 26.6806 7.01791 
1090.66 38.8808 -1.33703 
1095.78 82.5141 4.97964 
1091.88 54.6768 -25.0134 
1089.72 28.9902 -2.90613 
1091.86 30.7722 6.10953 
1093.68 74.8112 12.8809 
1095.06 12.0446 -14.5789 
1095.66 80.6646 7.00426 
1097.58 98.4391 -17.2219 
1091.46 42.8016 16.8102 
1105.15 88.6266 5.0949 
1091.4 24.5372 -4.88878 
1100.67 103.29 -31.2714 
1092.48 54.9544 0.936999 
1099.38 84.8709 5.067 
1091.38 50.7232 -5.28269 
1089.33 17.0882 -29.3079 
1090.93 36.8879 -27.2275 
1094.9 82.7666 -1.08024 
1093.09 66.5484 -8.78228 
1096.19 101.107 -24.0686 
1096.65 94.9142 -30.8899 
1091.41 50.8668 2.81038 
1096 96.998 -21.3642 
1091.39 12.8967 -29.2856 
1092.7 62.8176 7.08244 
1103.18 24.9358 5.48621 
1095.44 86.9835 -27.1908 
1093.02 62.8071 -24.9525 
1091.42 48.9207 8.8173 
1092.66 52.8492 -32.71 
1090.67 18.6475 -15.0796 
1093.6 10.7859 -29.1928 
1090.58 30.6858 -27.158 
1103.56 78.631 20.5828 
1093.94 74.5838 -12.9893 
1093.31 92.5245 -0.0350053 
1090.85 44.4035 -5.2383 
1098.99 101.038 -33.2274 
1092.92 66.8345 3.04054 
1097.25 100.671 -23.2374 
1096.01 98.9122 -25.1398 
1091.43 50.8523 9.09411 
1093.81 76.9363 6.98606 
1090.25 55.5355 -3.26204 
1091.84 52.822 -31.067 
1093.44 74.7428 10.7336 
1094.77 78.9186 4.97405 
1090.76 42.5762 -11.1329 
1095.24 88.8399 -21.3883 
1107.27 78.8443 19.2572 
1094.51 76.8584 -21.0728 
1093.01 64.6339 -3.2003 
1092.67 56.982 8.93798 
1091.1 14.737 -29.0919 
1107.31 96.4883 -10.9397 
1093.77 72.5546 -13.0742 
1091.06 38.7677 -29.1461 
1092.75 53.6131 7.52998 
1107.19 75.4618 22.6439 
1095.34 88.7297 -7.22914 
1095.85 94.5276 -20.7951 
1101.41 80.6572 20.6529 
1097.48 80.6228 16.8331 
1093.65 90.784 2.50397 
1091.15 46.7516 -3.23895 
1092.44 22.8339 -11.2303 
1090.86 14.0605 -22.8675 
1107.22 97.0047 -8.85942 
1096.33 89.0816 -27.5835 
1095.98 94.6555 -27.1086 
1087.51 17.6346 -21.0253 
1090.65 32.2849 -7.62808 
1089.5 12.6993 -15.3667 
1091.59 36.7087 8.66786 
1095.03 79.1571 -34.6737 
1091.14 43.1186 12.8105 
1099.21 93.0133 -9.06142 
1094.39 13.3754 -23.3071 
1094.75 80.9357 -1.03884 
1094.53 74.9778 -15.442 
1095.13 10.4054 -29.072 
1092.51 56.7159 -3.45094 
1109.05 97.2029 -9.46886 
1089.31 16.9158 -25.2175 
1095.63 53.2746 22.2126 
1092.82 60.6751 -15.3286 
1103.19 84.6402 10.6381 
1091.58 49.0311 14.8414 
1093.87 70.9474 16.7212 
1095.91 90.5673 0.959053 
1093.96 78.8924 -1.20357 
1091.84 56.7369 2.85213 
1095.6 80.4522 11.0885 
1100.51 102.058 -36.6506 
1107.35 86.7208 3.44989 
1092.49 57.1391 -22.9975 
1091.18 48.6519 -7.2237 
1092.67 60.9651 3.14478 
1095.86 92.7711 -24.9571 
1113.08 102.066 -19.6065 
1089.63 24.8717 -28.8663 
1099.66 10.7044 -15.706 
1093.7 70.708 -25.0906 
1103.46 84.6479 8.9082 
1092.98 64.8046 -1.13886 
1094.61 76.8626 -22.8913 
1097.44 92.587 -11.2679 
1092.74 57.3044 16.8326 
1101.37 100.6 -15.525 
1091.69 49.0164 16.7607 
1093.46 65.1373 17.2339 
1092.42 52.9449 -15.8187 
1094.03 76.5477 -17.152 
1091.08 40.979 -25.0238 
1101.2 99.0815 -16.3414 
1091.91 60.2801 -23.3474 
1110.12 88.7673 1.46325 
1103.28 24.8738 6.68782 
1095.14 86.7122 -17.0828 
1107.19 85.0254 5.22533 
1092.94 64.5576 -13.1075 
1095.56 88.9283 -27.1831 
1091.25 48.5603 -9.31112 
1092.55 58.9 0.863175 
1095.62 90.6759 -26.9672 
1095.09 76.9602 14.9939 
1091.39 44.8178 -29.3451 
1095.22 42.8475 21.4892 
1096.82 27.5466 6.90356 
1089.61 24.7851 -26.8996 
1105.61 84.661 9.0039 
1091.95 56.6695 16.8327 
1099.52 31.0004 8.76108 
1092.05 56.6017 -32.8 
1093.53 16.682 -12.667 
1091.65 50.9832 12.7896 
1091.02 36.7359 -32.7651 
1089.23 16.8322 -23.1419 
1091.74 39.0112 18.6846 
1101.07 54.8313 23.1257 
1095.86 92.9525 -17.4482 
1093.46 32.8968 8.22522 
1093.91 73.0386 14.7509 
1105.6 95.4369 -9.18718 
1093.4 68.5 -12.7561 
1090.93 38.6338 -21.084 
1089.36 18.5011 -15.2216 
1092.7 47.0048 18.9781 
1093.04 64.9196 15.2058 
1090.09 40.4286 -27.1442 
1091.19 42.9532 14.7284 
1101.04 9.63419 -26.2049 
1091.53 46.9589 16.7084 
1100.36 63.33 21.4822 
1089.29 18.8221 -21.2035 
1092.62 60.8142 0.845496 
1095.78 92.8271 -22.9914 
1094.02 80.8389 -3.08888 
1087.32 15.5052 -20.7962 
1099.31 28.6099 5.84785 
1091.31 46.8472 -23.3317 
1091.61 48.8959 -31.2992 
1095.34 56.7534 20.9642 
1095.14 78.8259 14.9521 
1090.74 42.5875 -5.20178 
1098.09 15.4211 -9.83891 
1089.8 28.6317 -17.2397 
1089.74 28.8008 -18.9139 
1099.79 73.3186 19.4729 
1090.16 40.2254 -15.1241 
1092.09 61.0386 15.3049 
1093.88 74.8485 -7.07882 
1090.83 40.8646 -15.3619 
1109.36 101.179 -15.0686 
1093.82 76.8387 12.6307 
1096.08 95.0844 -16.6874 
1094.53 69.0984 -23.6618 
1101.54 68.5275 22.4472 
1091.83 52.8868 12.6741 
1099.45 42.311 24.9465 
1111.86 90.4414 1.71322 
1091.24 50.9362 -1.16123 
1095.2 92.564 -2.86902 
1094.16 80.6807 -13.1141 
1101.77 84.4311 14.7482 
1095.43 84.9294 -31.1652 
1091.57 48.862 13.0648 
1093.11 64.6873 -9.04972 
1090.11 42.49 -25.0926 
1099.23 78.909 18.6248 
1091.22 48.7545 -5.21548 
1089.9 38.602 -17.2094 
1090.16 40.9233 -5.10518 
1105.04 100.937 -17.0479 
1092.92 64.9732 12.9094 
1092.93 62.689 -3.02066 
1094.52 75.044 -20.9516 
1091.86 56.6056 -8.90549 
1095.13 49.0833 21.0678 
1093.08 68.9762 11.0162 
1101.21 75.1628 19.5577 
1094.77 78.754 -31.0595 
1097.38 63.0627 21.0201 
1101.42 64.6091 22.4749 
1102.76 103.555 -21.3846 
1090.01 34.8335 -23.0395 
1089.94 15.2635 -31.0575 
1090.79 30.8201 3.1282 
1095.4 19.1683 -9.46053 
1094.71 82.8428 -3.09092 
1093.88 76.7546 -3.20841 
1106.93 85.6786 3.85857 
1099.32 81.0834 18.7462 
1103.23 48.6724 23.0729 
1093.59 72.7725 -2.83027 
1102.8 50.7991 23.5254 
1093.48 70.7529 -3.11334 
1093.27 68.9019 -2.84211 
1094.6 79.1836 -15.3336 
1091.14 42.8362 -23.1504 
1096.72 96.9833 -27.0304 
1100.93 102.614 -35.1572 
1092.46 54.8614 -3.19812 
1095.27 78.798 12.8172 
1090.82 42.7682 -3.41542 
1090.75 26.5242 -3.15569 
1102.8 104.792 -29.0919 
1089.82 28.7334 -20.9213 
1104.64 30.6454 9.06275 
1093.19 66.4615 -10.7997 
1099.24 98.8278 -16.7984 
1101.23 78.6018 20.6634 
1091.49 48.778 -27.3347 
1092.39 51.3851 15.4275 
1095.6 86.7762 0.640156 
1090.97 44.5685 -11.3158 
1098.51 34.3076 14.7101 
1092.86 64.9201 1.15939 
1094.64 76.8914 -24.7146 
1097.4 92.5232 -9.23603 
1091.37 48.7756 -23.2852 
1094.82 84.9612 -4.96136 
1090.51 38.7379 -3.48522 
1093.88 90.5173 0.571876 
1091.12 46.7441 -5.01008 
1104.43 99.5956 -16.6676 
1089.82 26.9151 -2.95727 
1090.93 36.8597 4.61657 
1092.64 57.0031 -18.9613 
1090.4 27.2472 -33.3379 
1094.85 62.6798 19.4106 
1091.1 46.5426 -17.2535 
1095.6 81.2004 16.7642 
1108.04 80.7241 19.8974 
1105.8 97.1839 -14.4393 
1093.65 92.3087 -1.74516 
1090.86 44.793 0.581296 
1104.29 95.3066 -12.7503 
1090.65 32.7705 2.8972 
1091.8 54.5622 -15.0284 
1094.81 80.8834 -26.886 
1093.29 68.7921 12.979 
1094.08 82.6726 -4.96322 
1093.76 66.8699 17.008 
1092.2 63.2991 16.9248 
1093.88 76.6692 -5.09308 
1093.58 70.8244 -4.8463 
1093.41 68.5857 -4.87887 
1094.54 78.7701 -13.2455 
1091.08 42.8353 -25.2619 
1105.5 9.73958 -19.8552 
1095.07 35.8601 14.6871 
1092.63 56.8032 -5.07117 
1091.68 52.755 -4.83766 
1094.5 71.0066 -27.1279 
1095.55 92.7379 -6.453 
1094.04 80.8285 -9.14541 
1093.44 92.6419 2.61388 
1090.95 44.7073 -3.20046 
1090.57 30.9643 -28.8594 
1103.19 78.9357 18.9 
1093.96 74.6656 -14.8969 
1090.79 26.4489 -4.92062 
1090.94 10.9739 -19.2472 
1109.45 102.652 -15.3931 
1101.25 95.2027 -12.5934 
1103.46 55.6395 23.8192 
1091.94 52.7252 18.4574 
1094.12 82.8001 -6.77609 
1094.66 80.7187 -24.83 
1091.65 12.6929 -25.1309 
1093.23 21.0379 -9.17516 
1090.53 38.4594 -5.33776 
1089.88 34.6249 -5.20843 
1093.87 76.6317 8.83663 
1089.72 28.6963 -4.80409 
1091.16 24.7418 -6.87695 
1089.7 26.7923 -21.1757 
1096.55 65.6414 19.7701 
1094.38 73.5303 -19.2199 
1095.44 82.8769 2.74458 
1094.76 18.4377 -10.7441 
1089.59 22.4746 -12.0377 
1103.36 98.9534 -15.1326 
1103.15 60.097 24.3658 
1095.24 40.4756 21.3911 
1092.86 60.7028 -17.1604 
1090.94 26.6627 -7.29912 
1103.31 57.542 23.7561 
1094.03 80.8425 -7.14006 
1093.66 70.5821 -7.07896 
1107.59 102.612 -17.1855 
1087.88 14.5329 -24.313 
1091.23 46.4953 -19.2231 
1095.79 90.521 -9.12 
1091.24 24.4149 -8.98918 
1093.07 12.5712 -13.0792 
1113.81 103.842 -20.7339 
1100.97 40.4395 23.1801 
1089.81 26.6165 -11.1561 
1091.26 16.6361 -13.1703 
1092.93 60.9154 -28.8136 
1099.56 66.8472 21.357 
1099.68 102.369 -34.8382 
1115.84 102.495 -27.4385 
1089.27 20.6476 -19.1341 
1098.07 95.8155 -11.8794 
1101.26 96.7778 -14.767 
1091.8 54.5841 -11.1621 
1094.9 84.6412 -9.16233 
1094.05 76.7173 -9.20597 
1094.9 80.8443 -23.1015 
1101.51 104.215 -29.4558 
1103.07 50.8247 24.6882 
1093.56 70.506 -9.15457 
1099.15 102.603 -31.2129 
1092.72 60.649 -8.78004 
1090.07 38.6576 -7.06833 
1089.84 34.6253 -7.28556 
1089.82 32.7675 -6.91858 
1103.23 104.483 -19.6087 
1089.8 28.8498 -6.93488 
1099.61 88.5984 2.65899 
1090.62 14.2947 -21.1562 
1092.62 22.6017 -8.81251 
1091.9 54.8205 12.3768 
1095.89 90.5211 -11.2265 
1102.79 40.6016 24.3167 
1099.73 55.0368 24.2267 
1090.18 54.7247 3.75678 
1091.54 52.5228 -9.33371 
1094.57 70.9363 -31.112 
1090.35 32.8149 -2.83762 
1098.24 69.7637 22.1109 
1113.32 86.5402 5.29859 
1091.52 50.5648 -9.15701 
1089.58 26.6077 -17.0207 
1107.59 100.821 -15.4335 
1092.86 18.8059 -12.4066 
1101.16 98.5919 -15.1433 
1093.01 28.7325 5.35613 
1095.76 64.9521 20.7507 
1099.31 96.6046 -15.1665 
1094.08 80.2465 -17.112 
1097.58 94.5684 -13.3901 
1092.53 53.1233 -6.06826 
1095.33 88.6908 -11.1697 
1094.89 84.6137 -11.2368 
1095.82 90.3978 -5.05228 
1093.99 78.5021 -10.9856 
1092.14 62.9167 8.71677 
1093.69 72.8128 12.9342 
1089.36 22.7604 -21.1389 
1095.94 79.0368 18.3373 
1092.29 63.3914 15.2175 
1094 76.5647 -11.1543 
1107.43 92.9085 -0.716038 
1089.91 34.7817 -9.04862 
1089.81 28.8359 -8.97032 
1090.91 24.4193 -11.0608 
1109.2 89.0004 2.96378 
1092.15 60.6722 -21.2263 
1099.4 102.463 -33.185 
1092.84 60.6898 -10.9253 
1091.48 52.6659 -11.2748 
1089.28 24.6599 -32.7627 
1094.46 70.9958 -32.9976 
1098.86 49.2168 21.4634 
1093.73 42.5565 22.3363 
1091.4 50.6676 -11.1392 
1093.42 10.8019 -26.8084 
1091.13 18.9555 -12.933 
1089.58 22.4823 -15.2906 
1092.63 55.1243 10.7666 
1096.97 90.8722 -5.40028 
1101.38 102.306 -17.1375 
1097.56 16.9008 -9.86696 
1089.87 30.7253 -13.1219 
1090.77 40.8846 0.687825 
1097.75 96.9265 -15.349 
1095.73 90.6243 -13.2408 
1094.8 84.8618 -13.0893 
1095.47 90.4934 -3.15202 
1094.07 78.6364 -13.0512 
1091.22 48.6318 -11.2912 
1101.11 36.1676 20.5933 
1089.96 38.5524 -10.8895 
1103.4 102.37 -17.0424 
1089.89 34.2785 -11.3393 
1089.81 32.6786 -11.1595 
1096.93 14.5141 -11.35 
1089.83 28.5571 -11.0633 
1094.71 79.1665 0.798885 
1090.77 42.6149 -7.23649 
1091.98 58.6436 -22.9044 
1090.86 22.7242 -12.9413 
1090.75 20.8149 -12.7259 
1097.23 100.545 -18.8669 
1099.57 98.431 -15.4258 
1097.58 64.8605 21.0259 
1094.51 73.0634 -28.8363 
1089.68 26.6135 -19.0899 
1092.3 65.3301 11.6838 
1093.51 70.5378 -12.9418 
1089.78 24.5022 -13.2536 
1099.28 100.785 -17.2378 
1095.56 90.6016 -1.11816 
1094.12 78.3631 -15.1682 
1093.21 68.8474 1.07713 
1095.53 48.7302 22.4675 
1099.9 11.4371 -11.7755 
1093.77 70.6397 -21.0809 
1098.38 34.2735 13.7745 
1090.84 44.6151 -13.235 
1102.66 101 -18.2775 
1089.83 32.5624 -12.992 
1102.76 104.861 -20.7336 
1096.76 13.9249 -12.4778 
1089.82 28.622 -13.0226 
1089.83 26.5303 -13.1871 
1094.53 72.937 -27.124 
1090.55 36.787 -8.95617 
1089.49 16.8237 -15.3868 
1098.67 10.2633 -31.5079 
1107.16 87.7317 7.04979 
1090.57 36.2603 -11.2345 
1089.44 16.5699 -13.5907 
1099.48 102.097 -19.4115 
1105.46 104.903 -29.7524 
1100.92 30.4539 7.43241 
1105.94 78.547 23.1778 
1108.98 98.8588 -13.2212 
1097.25 96.4474 -17.0958 
1108.18 95.1957 -6.20138 
1095.88 12.1821 -30.0912 
1097.3 98.7562 -31.1947 
1094.63 80.8097 -15.1396 
1092.48 56.8147 3.04336 
1093.84 72.8737 -15.0245 
1101.16 90.2835 4.51528 
1096.12 94.9556 -28.8697 
1091.42 52.9632 0.789777 
1093.46 71.0531 10.9631 
1098.68 99.2317 -35.5912 
1095.1 29.0599 6.57212 
1097.22 56.8617 21.6178 
1094.67 68.5347 17.2735 
1089.73 32.5089 -15.102 
1102.67 104.265 -26.7498 
1089.77 28.7411 -15.177 
1092.83 12.3773 -25.1792 
1094.71 80.9051 -17.2886 
1111.35 103.924 -26.0278 
1091.54 54.9214 -5.00287 
1092.29 65.4066 14.0133 
1093.67 70.6259 -17.0655 
1093.25 66.6315 -17.0258 
1097.67 100.363 -34.5705 
1096.32 98.1618 -29.9442 
1090.67 26.2847 -1.04685 
1098.62 101.173 -23.4324 
1093.25 66.8239 -19.0276 
1090.96 44.585 -17.2612 
1090.76 40.7333 -17.2633 
1101.53 17.4381 -7.1069 
1089.84 34.5403 -16.8757 
1091.45 44.8002 -31.1332 
1090.92 36.6135 -23.3045 
1093.38 44.7939 20.8788 
1089.4 16.4898 -17.2287 
1094.83 82.9152 -19.0645 
1101.36 62.6744 22.6159 
1092.17 62.3775 -23.4497 
1109.2 86.6931 4.97777 
1093.81 72.6215 -19.0215 
1099.64 10.1105 -25.0477 
1101.38 46.6187 24.6919 
1092.47 55.0963 -19.2798 
1098.8 100.824 -25.5925 
1093.36 66.6925 -21.0898 
1089.58 24.4779 -17.0307 
1091.79 52.8271 -18.9186 
1092.57 50.9644 -24.822 
1097.26 42.7209 22.9209 
1090.02 40.7515 -19.2158 
1089.56 24.6022 -19.224 
1108.58 95.0811 -7.59227 
1089.45 14.6331 -18.951 
1094.83 82.7596 -21.0949 
1090.28 43.5419 -12.1698 
1093.13 64.7048 -21.1124 
1100.52 17.9384 -8.68466 
1089.88 32.4202 -18.9318 
1091.49 51.0249 6.92688 
1104.42 78.9304 17.7467 
1109.31 99.1052 -14.6406 
1090.81 38.3682 -32.3489 
1089.29 18.9785 -19.1746 
1106.51 98.4597 -2.93373 
1099.14 102.755 -25.1753 
1105.55 105.038 -23.3121 
1101.19 30.9879 8.43518 
1096.19 99.553 -20.0959 
1097.13 100.719 -25.1065 
1092.94 12.6349 -29.45 
1097.41 70.8934 20.6028 
1091.91 50.6714 20.2324 
1091.16 12.3392 -14.9001 
1102.6 29.7635 10.6203 
1095.04 84.7182 -21.1165 
1091.74 52.5451 -13.0513 
1093.5 70.7871 0.771714 
1091.8 52.7115 -21.0876 
1092.4 50.9434 -27.2863 
1096.94 43.3153 21.6153 
1090 40.99 -21.0023 
1100.76 20.8587 -0.727805 
1089.67 22.47 -12.9067 
1105.5 86.7358 4.66259 
1089.54 24.7362 -21.0596 
1089.53 14.7253 -21.0117 
1101.27 84.6555 6.91855 
1095.01 84.8406 -23.062 
1092.48 53.3 -10.8882 
1101.59 86.4881 6.60246 
1094.81 82.7749 -23.0413 
1092.45 50.721 0.904183 
1103.14 43.4228 24.904 
1100.22 57.3479 24.1726 
1098.75 100.709 -19.28 
1093.42 66.8662 -22.9845 
1090.02 42.7179 -15.617 
1093.14 64.9505 -22.9711 
1092.31 64.861 -16.9062 
1092.77 58.7385 -23.1277 
1090.02 32.7855 -21.1763 
1101.35 84.9065 4.94897 
1095.03 84.7531 -25.0618 
1092.57 52.9478 -1.27782 
1091.59 52.9813 8.90395 
1093.31 70.8649 2.89534 
1091.77 52.6673 -23.1666 
1089.48 14.9821 -22.9258 
1091.67 42.8455 18.8255 
1094.71 79.0632 -24.9916 
1094.45 73.1965 -25.0991 
1089.66 26.8822 -23.0456 
1090.17 43.0337 -8.95122 
1095.4 74.8305 18.5864 
1093.29 64.7376 -24.9298 
1107.55 86.488 4.84541 
1092.76 56.8567 -25.2576 
1091.7 44.6092 -32.5244 
1091.7 52.7772 -25.2544 
1099.14 48.9258 23.2059 
1091.51 50.8231 -24.9952 
1109.11 99.6224 -16.2695 
1095.75 50.7822 22.2773 
1089.37 18.7757 -25.2553 
1095.98 97.3046 -23.3016 
1091.46 12.638 -27.0002 
1091.3 51.0354 0.865448 
1089.7 26.6995 -25.0941 
1097.56 100.624 -29.0433 
1095.11 84.8239 -27.1035 
1092.41 52.809 0.792389 
1097.44 68.7619 20.6327 
1095.05 82.8456 -26.8346 
1095.1 86.5274 -13.2609 
1092.41 50.887 -3.87238 
1091.84 43.0903 20.6371 
1094.75 79.1417 -27.0247 
1094.39 69.4865 -26.9719 
1093.35 66.7987 -27.0228 
1111.01 9.87492 -29.3596 
1092.8 58.8159 -27.0239 
1087.78 12.7117 -19.1882 
1091.17 44.8546 -25.242 
1090.03 33.0575 -25.0328 
1095.69 66.859 20.5908 
1103.45 103.52 -32.8475 
1090.04 34.438 -27.1667 
1089.53 22.793 -27.0973 
1105.59 86.3303 6.61232 
1090.19 40.8509 -13.1685 
1099.25 73.0672 20.9558 
1090.11 34.5453 -29.1474 
1095.09 66.838 19.1017 
1093.42 66.8919 -28.8934 
1100.66 17.9908 -7.255 
1095.05 68.8655 18.9967 
1090.03 32.3639 -29.1752 
1091.92 52.9602 -32.7456 
1091.94 54.7376 -32.7928 
1095.8 69.1367 20.5245 
1089.99 32.8149 -26.9921 
1105.63 73.2803 21.5564 
1102.99 104.365 -31.0056 
1089.87 28.6315 -27.063 
1091.93 54.6928 -31.003 
1091.98 56.913 -30.9742 
1098.89 31.611 10.8678 
1091.43 24.7933 0.713649 
1092.59 55.3301 7.14976 
1097.05 91.1569 -9.4297 
1093.95 76.6231 14.4564 
1100.88 26.8241 6.69448 
1090.2 21.0229 -10.1172 
1103.32 96.9105 -13.1384 
1103.35 90.7015 -0.690898 
1090.63 34.833 2.81028 
1089.57 15.4306 -11.7286 
1090.55 34.7204 0.662466 
1103.35 57.8597 24.5712 
1093.92 78.9149 -4.87544 
1095.26 38.8143 20.7719 
1089.46 20.687 -32.6973 
1101.26 94.5774 -9.35659 
1103.21 100.411 -15.8267 
1089.84 32.8263 -1.09924 
1097.01 34.3797 12.8368 
1098.71 17.828 -10.1837 
1104.56 42.4433 23.1623 
1093.9 74.7263 -19.2059 
1103.01 56.312 24.2033 
1093.95 80.6343 -5.20098 
1092.89 58.9492 -19.3676 
1103.17 63.3112 23.0673 
1092.15 64.7162 2.61404 
1096.93 34.9462 14.845 
1091.82 54.9247 4.91385 
1097.69 88.5256 2.69547 
1091.91 58.7552 4.99437 
1091.97 54.5929 18.7448 
1093.44 22.6351 -2.9422 
1092.6 58.8197 11.3183 
1092.3 64.495 4.7537 
1094.14 80.8489 0.784404 
1092.42 55.0866 3.29683 
1097.81 90.7224 2.70123 
1091.39 24.9226 2.53116 
1104.95 44.6821 23.3476 
1094.11 76.5775 -19.0555 
1097.25 12.7609 -11.8106 
1091.35 32.9098 4.91377 
1103.7 88.7814 1.25472 
1091.51 54.8454 6.80997 
1097.01 24.7694 4.89254 
1100.18 70.6807 22.2927 
1100.85 32.2254 12.46 
1092.54 56.5524 -9.07622 
1095.47 36.5536 18.8365 
1092.24 68.7996 -0.435092 
1091.44 48.7009 -25.3968 
1089.85 28.7006 2.91809 
1092.72 54.9243 17.085 
1096.94 90.9663 -7.1282 
1097.83 60.6964 22.2616 
1092.03 59.1317 7.04946 
1095.28 92.4295 -1.29328 
1094.09 80.3802 -14.954 
1093.48 22.843 -1.10143 
1092.3 61.1637 -32.4525 
1093.95 78.5411 -19.1244 
1101.34 96.2875 -11.2314 
1093.44 68.5866 -7.13323 
1103.27 61.8367 24.4238 
1092.77 58.6374 -17.375 
1092.17 65.0802 9.08181 
1091.93 57.0031 8.87621 
1099.38 90.7648 0.491149 
1096.65 82.7371 3.63154 
1092.06 61.1417 8.89806 
1097.06 26.856 5.45536 
1087.99 19.4263 -19.6282 
1089.27 14.6286 -16.9458 
1090.46 34.4413 -9.62684 
1093.66 58.7317 20.5053 
1093.33 22.734 2.70768 
1092.69 58.6381 -15.2556 
1092.29 64.9804 6.5314 
1106.92 77.1706 22.2089 
1092.59 51.4074 -1.1719 
1095.14 82.9149 -28.8406 
1093.5 68.5594 -9.10528 
1087.86 19.4804 -24.7366 
1099.09 32.4004 8.85468 
1090.44 34.5095 -7.32358 
1093.16 23.5526 4.37855 
1099.47 74.7606 20.696 
1095.25 32.9072 8.72398 
1096.9 81.279 6.97793 
1093.67 74.7637 9.06901 
1091.94 56.8516 -25.5626 
1094.94 82.7228 -25.0931 
1101.42 86.5069 4.64431 
1094.73 82.5547 -7.14191 
1093.43 59.0687 18.9648 
1093.98 75.0195 14.7972 
1090.05 37.1164 2.72658 
1095.05 64.5894 19.3521 
1096.73 91.0113 -13.0116 
1099.41 22.5764 2.80811 
1092.95 25.3267 4.23317 
1087.92 19.3766 -23.391 
1090.74 34.5397 -20.9585 
1099.06 32.9056 10.9473 
1091.25 24.6014 -1.03644 
1092.49 51.3982 -22.9778 
