ply
format ascii 1.0
comment Created by CloudCompare v2.11 alpha (Anoia)
comment Created 9/13/19 3:58 PM
obj_info Generated by CloudCompare!
element vertex 1450
property float x
property float y
property float z
end_header
-0.009682 -0.0323623 -0.01296 
0.0052461 -0.0355698 -0.00393005 
-0.0023505 0.0337553 0.00025 
-0.0292843 0.0038811 -0.00518005 
-0.0264254 0.0195527 6.00586e-05 
0.0191757 -0.0359815 -0.00462 
-0.0025215 -0.0372814 -0.00783997 
0.0026697 -0.035602 -0.00337 
0.0112927 -0.045597 -0.02364 
0.0039719 0.0362195 0.00263 
-0.0061674 -0.0367146 -0.00621997 
-0.0309848 0.0105557 -0.01279 
-0.0048064 -0.037781 -0.00718005 
-0.0089551 -0.020068 -0.00243994 
-0.0296774 0.0116069 -0.00723999 
-0.0305915 -0.0191245 -0.0129301 
-0.0277576 0.0036536 -0.00267004 
0.0047798 -0.0401518 -0.0174399 
-0.0085646 0.016204 0.00187 
-0.0011049 -0.0296966 -0.00218994 
0.0234075 0.0334659 0.00152002 
0.0102753 0.0466181 0.00369995 
0.0162272 0.0300796 0.00167004 
-0.0210856 -0.0287164 -0.0138 
0.0137618 0.0263705 0.00147998 
0.0098108 0.0415747 0.00147998 
0.0089996 0.0404221 0.00113 
-0.0205486 0.0256089 -0.01025 
0.0112691 -0.047353 -0.01351 
0.0164397 -0.047973 -0.00619995 
0.0070847 0.0264303 0.00154004 
0.0157228 -0.047651 -0.00734998 
0.0031091 0.0398067 0.00218005 
0.0049446 0.0203512 0.00143994 
-0.0239054 0.0152822 0.00194995 
0.011345 -0.047286 -0.00643994 
0.0025619 0.02816 0.00166003 
0.0016899 0.0266712 0.00154004 
-0.0264524 0.0141394 0.00188 
0.0247776 0.011769 0.00205005 
0.0250988 0.0156843 0.00205005 
0.0236181 0.0116853 0.00168994 
-0.0232167 0.0238433 -0.00781006 
0.0187094 0.0376323 0.00394995 
0.0090941 0.0221964 0.00141003 
0.0216994 0.0117704 0.00168994 
-0.0300675 0.007191 -0.00178003 
0.0051189 -0.00356 1.00098e-05 
0.0048935 0.0298857 0.00164001 
-0.0211523 -0.0278748 -0.0127 
0.023514 0.0156714 0.00173999 
-0.0230009 -0.0038042 -0.000800049 
0.0237662 0.0300089 0.00163 
0.00718 -0.0054804 8.99658e-05 
0.0232926 -0.0017474 6.99463e-05 
0.0148703 0.0394826 0.00445996 
0.0014069 0.0244871 0.00164001 
-0.0208388 -0.0270323 -0.00747998 
-0.0095454 -0.0274913 -0.00502002 
-0.0280614 0.0085342 -0.000119995 
0.0240816 0.0425783 -0.000619995 
-0.0034787 0.0139069 0.00182996 
0.0092451 -0.045484 -0.01372 
-0.0213158 -0.0036376 -0.000780029 
-0.0300826 0.0090625 -0.00185999 
-0.0229419 -0.0274824 -0.01351 
0.019528 -0.047314 -0.00585999 
-0.0255776 -0.0255225 -0.0167 
0.0265468 -0.0225254 -0.00131995 
0.0093774 -0.0036119 0.000319946 
-0.0271317 -0.0238813 -0.0169301 
-0.0254422 -0.0240136 -0.01523 
-0.0256687 -0.0221824 -0.00902002 
0.0042842 0.0076949 -0.000410034 
-0.0252749 -0.0270477 -0.01642 
-0.0226381 -0.0273451 -0.01195 
-0.0277302 -0.0098832 -0.00452002 
-0.0068396 -0.0035999 0.000170044 
0.0029686 -0.0056471 -5.00488e-05 
-0.0024804 0.0226645 0.00144995 
-0.0095762 -0.0114797 -0.000119995 
-0.0113219 -0.0113232 -0.000219971 
-0.0117708 -0.0303263 -0.01898 
-0.009376 -0.0132934 -0.000319946 
-0.0070324 -0.0393542 -0.01665 
-0.0156469 0.0248323 -0.00503003 
0.0131644 0.0099012 0.00168005 
0.0061139 0.0452332 0.00175 
-0.0066138 0.0247695 0.00157996 
0.0051726 -0.0057 -7.99561e-05 
0.0053921 -0.0397448 -0.00748999 
0.013174 -0.047452 -0.00667004 
-0.0050952 -0.0395632 -0.01525 
-0.0048765 -0.0034449 0.000140015 
0.0030471 -0.003651 0.000109985 
-0.0031787 -0.0411214 -0.01529 
-0.0063847 -0.0369547 -0.01079 
0.0219365 0.0318748 0.00156006 
0.0031011 -0.043096 -0.0183101 
0.0113379 -0.0053812 -0.000189941 
0.004808 -0.0077315 -5.00488e-05 
0.0240622 0.0454235 -0.00462 
-0.0210514 -0.0019792 -0.000680054 
0.0152337 -0.0254987 -0.00222998 
0.0245433 0.0400173 0.00118005 
-0.0081901 -0.0392907 -0.01776 
0.0193498 0.0098464 0.00175 
0.019058 0.032434 0.00159998 
0.0215652 0.0097062 0.00170996 
0.0192894 0.0403522 0.00127002 
0.0212418 0.0428659 -0.00137 
-0.0174436 -0.0264447 -0.01254 
0.0232349 0.0176304 0.00175 
0.0175222 -0.048181 -0.00930005 
0.0246136 0.0438694 -0.00242004 
0.0236194 0.0356032 0.00166003 
0.0235313 0.0377835 0.00153003 
0.025083 0.0176368 0.00195996 
0.0253695 0.0258477 0.00177002 
-0.0316864 0.0087056 -0.01302 
0.0253222 0.0317054 0.00152002 
0.0253064 0.0336579 0.00143005 
0.0252906 0.0356105 0.00134998 
0.0252748 0.037563 0.00126001 
0.0251925 -0.0360639 -0.00468005 
0.0231309 -0.0359501 -0.00473999 
0.0247417 -0.045678 -0.00579004 
-0.0201811 -0.0207635 -0.00205005 
0.0251874 -0.047469 -0.0075 
0.0010045 -0.0391962 -0.01322 
-0.014451 -0.0318624 -0.02053 
0.0250261 -0.047605 -0.00963 
0.0060189 -0.043514 -0.0206899 
-0.0268131 -0.0260122 -0.0171 
0.0114472 0.019963 0.00125 
0.0192476 -0.019536 -0.00188 
-0.0129523 -0.0337509 -0.01911 
0.0233435 -0.047447 -0.00981006 
0.0159865 -0.0346954 -0.00441003 
0.0168901 -0.0375725 -0.0045 
-0.000603001 0.0269417 0.00147998 
-0.012185 -0.03581 -0.0194 
0.0150799 -0.0197297 -0.00181995 
-0.0107802 -0.0341514 -0.0189 
0.0130949 -0.0384173 -0.00452002 
0.0175284 0.0460385 -0.000880005 
0.0037189 0.0387181 0.00047998 
-0.0027321 -0.00144 0.000109985 
-0.0027945 -0.003415 -0.000140015 
0.011589 -0.0351188 -0.00434998 
0.00354 0.040678 0.000439941 
0.0014944 0.0288361 0.00156006 
0.0110438 -0.048862 -0.01563 
0.0176782 -0.0259691 -0.00213 
0.0227799 0.0408604 0.00106995 
0.0031564 0.0305305 0.00151001 
0.0031105 -0.0400785 -0.01913 
0.0046803 -0.0284253 -0.00219995 
-0.0005364 0.0286428 0.00155005 
0.0191319 0.0471296 -0.00668005 
-0.0308278 0.0099541 -0.00931006 
0.0151483 0.0407568 0.000900024 
-0.001799 0.0329967 -0.000400024 
0.0093166 -0.0250807 -0.00214001 
0.0214122 -0.045621 -0.02442 
-0.0315144 0.0046115 -0.01073 
-0.0012307 -0.0280211 -0.00212 
0.001296 0.0307711 0.00120996 
0.0230372 -0.045462 -0.03153 
-0.015343 0.020196 -0.000640015 
-0.0072422 0.0288651 0.00120996 
0.015547 0.0457423 0.000199951 
0.0110738 -0.045745 -0.01742 
0.0052864 0.0366986 0.00231006 
0.0168053 -0.045781 -0.02272 
-0.0087778 0.0143077 0.00192004 
-0.0283366 -0.0148584 -0.00418005 
-0.0087683 0.0126643 0.00181995 
-0.0092462 0.0091069 0.00182996 
-0.0049462 -0.0279929 -0.00210999 
-0.0309693 0.0059874 -0.00919995 
-0.0284944 -0.0232875 -0.01739 
-0.0211913 -0.0164581 -0.00267004 
0.0056071 0.0078609 0.00181006 
-0.0251106 0.022667 -0.00866003 
-0.0186866 -0.0224426 -0.00501001 
0.0005441 -0.0419434 -0.01736 
-0.0270675 -0.0217116 -0.01286 
-0.0106437 -0.0315948 -0.0136 
-0.0267973 0.0162671 -0.000790039 
-0.0140159 0.0111415 0.00179004 
0.0138465 -0.0338028 -0.00434998 
-0.0189275 -0.0180523 -0.00264001 
-0.0303152 -0.0024048 -0.00394995 
0.0248923 -0.001609 -0.00022998 
-0.0247188 0.0183648 -0.000890015 
0.0256174 -0.0183512 -0.00156995 
-0.0186925 -0.0284494 -0.0170601 
0.0053143 -0.0418471 -0.01914 
-0.0245534 -0.0274358 -0.01564 
-0.0085815 -0.035833 -0.01749 
0.0170867 -0.046899 -0.00751001 
-0.0111528 0.0103833 0.00188 
-0.0205958 -0.025999 -0.00946997 
-0.0031039 0.0106572 0.00192004 
-0.0229223 -0.0146385 -0.00256995 
-0.0246478 -0.0238297 -0.01151 
-0.0065378 -0.0372856 -0.01537 
-0.0209895 -0.0263229 -0.01133 
-0.0223101 -0.0209035 -0.00214001 
0.02291 -0.047312 -0.00676001 
-0.0088006 -0.0337579 -0.01327 
-0.0158775 0.0257305 -0.00143005 
0.024996 -0.0318492 -0.00459998 
-0.0087034 -0.0337233 -0.00938 
0.0128008 -0.045122 -0.02048 
0.000122 0.0317752 0.00206995 
-0.0308724 0.0144063 -0.00908997 
0.0091849 0.0263769 0.00151001 
-0.0108052 -0.0357842 -0.01896 
0.0230346 -0.044907 -0.02998 
0.0135381 -0.0358171 -0.0045 
-0.0209857 -0.027271 -0.01559 
0.0071454 -0.045975 -0.0189399 
-0.019094 -0.0276454 -0.0153 
0.0036208 0.0081553 0.00194995 
-0.0213613 -0.0214906 -0.00503003 
-0.00878 -0.0339634 -0.01516 
-0.0208998 -0.0145001 -0.00238 
-0.0325506 0.0039146 -0.011 
-0.0229573 -0.0273322 -0.01545 
-0.024834 -0.0236604 -0.00941003 
0.0152118 -0.0397931 -0.00481006 
-0.005122 0.0101856 0.00184998 
-0.0249621 -0.0135646 -0.00256995 
-0.0162547 -0.0166551 -0.00254004 
0.0270642 -0.0181616 -0.00180005 
0.0244751 0.0082449 -0.000560059 
-0.020389 -0.0279662 -0.01678 
0.0148898 -0.0379762 -0.00454004 
0.0133559 -0.04554 -0.00716003 
-0.0118352 0.0053686 0.00177002 
-0.013783 0.0243392 -0.00072998 
-0.0121738 -0.0322089 -0.01913 
-0.0281803 -0.0261001 -0.01729 
-0.0007794 -0.0374815 -0.00930005 
-0.0190177 -0.0277983 -0.0134 
-0.0176618 0.0119798 0.00185999 
-0.0048437 -0.0160458 -0.00237 
0.009079 0.0241561 0.00146997 
-0.0302449 0.0161448 -0.00164001 
-0.0164704 -0.0292139 -0.0193101 
0.0129372 -0.045029 -0.00539001 
-0.0189163 -0.0198818 -0.00285999 
0.0046091 -0.0361371 -0.00642004 
-0.0300585 -0.0037617 -0.00307996 
0.0027479 -0.0274383 -0.00208997 
-0.0151029 -0.0298339 -0.0195699 
-0.0303813 -0.0073674 -0.00730005 
-0.0300578 -0.0222197 -0.01711 
-0.0176273 0.0189295 -0.000569946 
-0.0050763 0.0262868 0.00155005 
-0.0165393 0.0033889 0.00168994 
0.0247913 0.0223475 0.00098999 
-0.0070013 -0.0378811 -0.01664 
-0.018711 -0.015938 -0.00255005 
0.00335 -0.0200583 -0.00248999 
0.0192087 -0.045906 -0.00587 
-0.0122511 -0.0296406 -0.00753003 
0.0154408 -0.0162713 -0.00243005 
-0.0301667 -0.0084692 -0.00605005 
-0.0267908 0.0115758 -0.000689941 
0.0092123 0.0201865 0.00126001 
-0.0138692 0.0053537 0.00188 
-0.0106202 0.017869 0.00189001 
0.0168646 -0.045567 -0.00572998 
-0.0147827 -0.020002 -0.00269995 
0.0077935 0.045679 -0.00378003 
-0.0144455 -0.018124 -0.00252002 
-0.0291084 -0.0201619 -0.01347 
0.0033328 -0.0396987 -0.01715 
-0.0166885 -0.018032 -0.00256995 
-0.0071756 0.026422 0.00151001 
-0.0185653 0.0186501 -0.000939941 
-0.0307554 -0.0117509 -0.00814001 
0.017244 0.0018773 -0.000709961 
-0.016197 0.0261046 -0.00309998 
-0.0252606 -0.019658 -0.00472998 
0.007896 -0.043456 -0.01347 
-0.0051139 0.0162118 0.00190002 
0.0030833 -0.0397103 -0.01363 
-0.0067642 -0.0277574 -0.00231995 
-0.014337 -0.0159152 -0.00256006 
-0.0088039 0.0245239 0.00141003 
-0.0104409 -0.0297145 -0.00389001 
-0.0004792 -0.0370776 -0.00763 
-0.0031585 -0.0379736 -0.01111 
-0.0069707 -0.0357107 -0.00925 
-0.0046408 -0.0372214 -0.0110699 
-0.0048608 -0.035824 -0.00707996 
-0.0110951 -0.0240302 -0.00209998 
-0.0067142 -0.0256885 -0.00221997 
0.0051989 0.0458196 -0.00256006 
-0.0094199 -0.0173281 -0.00251001 
-0.0092576 -0.0155531 -0.00244995 
-0.0138202 0.0034245 0.00192004 
-0.013967 0.0092122 0.00181995 
-0.0147107 0.0138527 0.00190002 
0.0067761 -0.043773 -0.0191 
0.0127342 -0.0216256 -0.00206995 
-0.0134233 0.0082651 0.00208997 
-0.0133973 0.0138527 0.00206995 
-0.0131024 0.0158916 0.00206006 
-0.0038177 0.0126984 0.00168994 
-0.0227639 -0.0158185 -0.00268005 
-0.0115321 0.008249 0.00191003 
-0.0088789 -0.0036986 7.99561e-05 
-0.01099 0.0124916 0.00189001 
-0.0108864 0.0163186 0.00203003 
-0.0117862 0.0034353 0.00180005 
0.0215632 0.04781 -0.00546997 
0.0192631 0.0419267 0.00075 
0.0245352 0.0491279 -0.00615002 
0.0214768 0.0404957 0.00131995 
0.0233489 0.0423657 0.000630005 
0.0174667 0.0152968 -0.000670044 
0.024919 0.0239361 0.00105005 
0.0244618 0.0420934 0.000699951 
0.0248025 0.028113 0.00196997 
0.001094 -0.0259184 -0.00197998 
-0.0120703 0.0353436 -0.00662 
0.009689 0.0460108 -0.00118005 
0.0248601 -0.0215432 -0.00156995 
0.0110152 -0.0037222 5.00488e-05 
0.0210569 -0.0158511 -0.00172998 
0.008995 0.0445983 0.000819946 
0.008201 0.0451432 -0.00098999 
0.0069667 0.0354968 0.00142004 
-0.0108199 -0.0335462 -0.01754 
0.0229363 -0.019655 -0.00188 
0.0070788 0.0288872 0.00154004 
0.0269609 -0.0356201 -0.00403003 
0.0049997 0.032443 0.00141003 
0.0127648 -0.0053897 -0.000119995 
0.0281485 -0.0378183 -0.00410999 
0.0192862 -0.0381267 -0.00469995 
0.009322 -0.0057016 -6.99463e-05 
0.002645 0.0131995 0.00197998 
-0.0068832 -0.0359138 -0.01139 
0.0069175 -0.001665 0.000119995 
0.0102818 -0.0346457 -0.00434998 
0.0012379 -0.0035439 0.000109985 
0.0067869 -0.0034965 6.99463e-05 
0.0027215 0.0447752 -0.00856006 
0.0232324 -0.015644 -0.00173999 
0.0079389 0.0460528 -0.00194995 
-0.0127188 -0.0318189 -0.01724 
0.0172799 -0.0214337 -0.00183997 
0.0187285 -0.0033174 -0.000130005 
0.022942 -0.045641 -0.00584998 
0.0073396 -0.019957 -0.00248999 
0.0109873 -0.0376017 -0.00456995 
0.0097497 -0.0341488 -0.00468994 
0.0060578 -0.043465 -0.00925 
-0.023033 -0.000115101 -0.000650024 
-0.0038334 -0.037604 -0.0148101 
0.0288051 -0.0414692 -0.00565002 
0.0196652 0.0444903 -0.00338 
0.0052186 -0.0233502 -0.00258997 
-0.0276981 -0.0144677 -0.00765002 
-0.0064771 -0.0077585 -0.000130005 
-0.0007404 -0.0015182 -0.000699951 
-0.0144844 -0.0315343 -0.01762 
0.0187899 -0.0215397 -0.00207996 
0.0172226 -0.0031668 -0.000219971 
-0.0067358 0.0180756 0.00192004 
-0.0008932 -0.0017395 -3.00293e-05 
0.0013417 -0.0157666 -0.00246997 
-0.0066849 0.0201289 0.00201001 
0.0093414 -0.043556 -0.00569995 
-0.0091012 0.0304699 0.00106995 
-0.0206964 0.0181839 -0.000849976 
-0.0092289 0.0265737 0.00153003 
-0.0029428 0.000371201 0.00022998 
0.023289 0.0518977 -0.01128 
0.0086333 -0.0359355 -0.00469995 
-0.0085959 0.0181976 0.00190002 
-0.0002651 -0.015874 -0.00247998 
0.0011232 -0.0200061 -0.00271997 
-0.0130013 0.0322515 -0.007 
-0.014271 -0.0318054 -0.00384998 
-0.0092144 0.0359386 -0.00306995 
-0.0272527 0.0225404 -0.00876001 
-0.0092662 0.0325962 -0.00118994 
-0.0106155 0.0221645 0.00194995 
0.0091494 0.0181203 0.00116003 
-0.0302839 0.0105449 -0.002 
0.0076484 -0.043288 -0.00760999 
-0.0108941 0.0322283 -0.000849976 
0.002819 0.0432927 -0.00855005 
-0.0230177 0.001884 -0.000599976 
-0.0130048 -0.0282065 -0.0190699 
-0.0294975 -0.014517 -0.0116 
0.0189045 -0.047524 -0.00683997 
-0.0183109 -0.0212351 -0.00214001 
-0.002659 0.0379922 -0.00710999 
0.022792 0.0281061 0.00144995 
0.0050284 -0.025591 -0.00276001 
0.00711 0.0471581 -0.00960999 
-0.0282151 0.0121253 0.00022998 
0.0094121 0.042669 0.00407996 
-0.0283218 0.0104278 -7.99561e-05 
0.0032265 -0.0180159 -0.00260999 
0.017361 0.0465644 -0.00341003 
-0.022991 -0.0019405 -0.000810059 
-0.0086395 -0.031691 -0.00368994 
-0.0229712 0.0039292 -0.000579956 
0.0069103 0.0004785 0.000150024 
0.0151013 0.0463204 -0.00494995 
-0.0290525 0.0182441 -0.00503003 
0.021628 -0.0239852 -0.00176001 
-0.030288 -0.0055353 -0.00755005 
-0.024663 -0.0261787 -0.00384998 
-0.0271254 -0.0179735 -0.00501001 
-0.0053314 0.0348706 -0.00468994 
-0.0208471 0.0100713 0.000660034 
0.0094226 -0.046461 -0.01897 
0.015188 0.0478862 -0.01004 
-0.0114452 0.0323441 -0.00260999 
0.0109458 -0.046848 -0.01938 
-0.0085997 0.0021216 0.000579956 
-0.0224788 0.0171934 -0.00052002 
-0.029087 0.0182636 -0.00715002 
-0.0048433 0.0023868 0.00027002 
0.023007 0.0468671 -0.00322998 
0.0012494 -0.0176202 -0.00246997 
-0.0073379 0.0353562 -0.00206006 
-0.0229787 -0.0258776 -0.0115601 
-0.0323766 -0.0016506 -0.00982996 
-0.0264541 -0.025347 -0.00917004 
0.019667 -0.017422 -0.00022998 
-0.0305186 -0.0139397 -0.01341 
-0.0323292 0.0121858 -0.00526001 
0.0110168 0.0140084 0.00197998 
0.0131122 -0.0399046 -0.00456006 
-0.0231369 -0.0220661 -0.00529004 
-0.0283167 0.0219546 -0.00951001 
-0.0264549 -0.0253028 -0.00380005 
-0.0106926 0.0357591 -0.00376001 
-0.0291641 -0.017865 -0.01112 
-0.0105216 -0.0318143 -0.01548 
0.0112805 0.046845 -0.00770996 
-0.012668 0.0336754 -0.00503003 
-0.0262525 0.0215873 -0.00187 
0.0172963 -0.0199247 -0.00191003 
0.0057448 0.0452581 -0.007 
0.0133279 0.0204832 0.00113 
-0.030172 0.0123444 -0.00182996 
0.0011185 0.0422116 -0.00855005 
0.021158 0.047176 -0.01465 
-0.0289645 0.0165422 0.000180054 
-0.018886 -0.0296471 -0.01196 
0.0100311 -0.044909 -0.00552002 
-0.0069957 -0.0198696 -0.00239001 
-0.0147082 -0.0211943 -0.00209998 
-0.000962099 0.0163703 0.00192004 
0.0126496 0.0445414 -0.00429004 
-0.021065 -0.0237963 -0.00655005 
-0.0009144 -0.0236921 -0.00271997 
-0.0030072 -0.0257024 -0.00288 
0.0227357 -0.0037644 -4.00391e-05 
0.0210656 -0.0216114 -0.00177002 
0.0271913 -0.047457 -0.01774 
-0.027873 0.0215606 -0.00640002 
-0.020924 0.021711 -0.00153003 
-0.0086672 0.0002738 0.000160034 
-0.0206396 0.0235739 -0.00378003 
-0.0271923 0.0221898 -0.00780005 
-0.0169236 0.0215678 8.99658e-05 
0.0067153 0.0441496 -0.000880005 
0.0232139 0.0041061 -0.000689941 
-0.0227005 0.0234702 -0.00364001 
-0.0324025 0.0085452 -0.00575 
-0.0272392 0.018551 -0.00317004 
-0.0128053 -0.0211975 -0.00195996 
-0.024386 0.0064277 0.00025 
0.0134016 0.0162814 0.00077002 
0.0086774 0.0462771 -0.00471997 
-0.01209 -0.0336292 -0.01825 
0.0244221 -0.0196535 -0.00179004 
-0.0326899 0.0114055 -0.0114 
0.0171535 0.0451037 -0.00455005 
-0.032615 0.0061929 -0.00728003 
-0.0293216 -0.0138719 -0.00931995 
0.023346 0.0021217 -0.000619995 
-0.0320203 0.0103572 -0.00584998 
-0.0275506 -0.0121204 -0.00477002 
-0.0094222 -0.0356363 -0.01891 
0.0030986 0.0265071 0.00156006 
0.0132128 -0.0264324 -0.00229004 
-0.0050269 0.0331019 -0.000369995 
-0.0110927 0.0282986 0.00106995 
0.0170389 0.0442113 0.00234998 
-0.0282174 0.0179671 0.000310059 
0.0052968 -0.0015132 0.000150024 
-0.0168883 -0.0317187 -0.0128199 
-0.0181869 -0.0288498 -0.0101801 
-0.0251955 -0.0157898 -0.003 
-0.0179064 -0.0312168 -0.01303 
-0.0073617 0.0326557 -0.00051001 
-0.0223049 0.0220927 -0.00290002 
-0.0166972 -0.0284003 -0.01775 
0.0232141 -0.0176377 -0.00180005 
0.0132649 0.0467906 -0.00541003 
-0.0048055 0.0183792 0.00194995 
-0.0190237 -0.0038083 -0.000709961 
-0.0224168 0.0217188 -0.00152002 
-0.0274702 -0.0199784 -0.00871997 
-0.0027873 0.0184493 0.00201001 
-0.0226707 0.0197678 0.000469971 
-0.0065525 0.0005485 6.99463e-05 
-0.0167277 -0.0199734 -0.00270996 
0.0150365 -0.045612 -0.00566003 
0.0042657 0.0412565 -0.00256006 
-0.0113607 0.0340786 -0.00293005 
0.0221436 -0.048767 -0.0101 
-0.0267475 0.0226153 -0.00364001 
-0.0136548 -0.0245588 -0.00484998 
0.0187976 0.0041435 -0.000530029 
-0.0272774 -0.0183131 -0.00726001 
-0.0187564 0.0238484 -0.00376001 
-0.0242425 0.0218282 -0.00175 
-0.0287589 0.0202917 -0.00746997 
-0.0162751 0.0299599 -0.00945996 
0.0111824 0.0468528 -0.00523999 
-0.0270959 0.0060872 -0.00077002 
-0.0012924 -0.0368546 -0.00543005 
-0.0016945 -0.0048447 0.00022998 
0.0267255 -0.0155263 -0.00188 
-0.0150798 0.0320733 -0.00920996 
-0.0106121 -0.0317465 -0.00958997 
0.0082677 0.0461778 0.00335999 
-0.0133843 0.0323903 -0.00890002 
0.020854 0.0465334 -0.00693005 
0.0266143 -0.0139075 -0.002 
-0.0133028 0.033916 -0.00932996 
-0.0128218 5.19981e-05 -0.000650024 
-0.0127393 0.0338341 -0.00697998 
0.0152711 0.0163404 0.000869995 
0.0064098 0.044772 -0.00480005 
0.0188446 0.045706 0.000310059 
-0.0145624 0.0332952 -0.00735999 
-0.0295693 -0.0159465 -0.01137 
0.0261702 -0.045527 -0.00603003 
-0.0048976 -0.0199097 -0.00246997 
0.0097756 0.0462334 -0.00330005 
-0.0052161 -0.0176059 -0.00234998 
-0.0116955 0.0344868 -0.00506006 
-0.0151629 -0.0301235 -0.0113199 
0.0128 0.0468588 -0.00379004 
-0.0012302 -0.017164 -0.00273999 
0.0060258 -0.0407521 -0.00620996 
-0.0230874 -0.024115 -0.00708997 
-0.0031719 -0.0236041 -0.00272998 
-0.0121801 -0.0308107 -0.0154399 
0.0092343 0.046248 -0.00732996 
-0.0028761 -0.0198976 -0.00262 
-0.0012303 -0.0196851 -0.00248999 
-0.0152641 0.0118922 0.00185999 
-0.0027735 -0.0157482 -0.00259998 
-0.025602 0.0095439 -0.000339966 
0.015012 0.0184428 0.000900024 
0.0166052 0.0462914 -0.00565002 
0.0265363 -0.0176339 -0.00263 
0.0157851 0.0261264 0.00134998 
-0.0302739 -0.0220751 -0.01128 
0.0174147 0.02576 0.00126001 
-0.0073621 -0.0175647 -0.00260999 
0.0148757 0.046199 -0.00269995 
0.0131529 0.0441478 0.00231995 
0.019325 0.0243224 0.00133997 
0.0186049 0.0299146 0.00162 
0.0190794 0.0466381 -0.00556995 
0.021404 0.0299881 0.00158997 
0.0210545 0.0459072 0.000400024 
0.0212237 0.0442441 0.00240002 
-0.0288276 0.020018 -0.01098 
0.0250519 -0.0117688 -0.00176001 
-0.0189501 -0.0259858 -0.00925 
0.0271356 -0.0297875 -0.00357996 
0.0210297 0.0022528 0.000199951 
0.0111922 -0.045911 -0.0149399 
0.023296 -0.0136947 -0.00163 
-0.0073674 -0.0099316 -0.000160034 
0.0269656 -0.0278889 -0.00367004 
0.022923 -0.0097478 -0.00142004 
-0.0093454 -0.0100263 -0.000130005 
0.0189333 0.0025168 0.000219971 
0.0088714 -0.0115764 -0.00131006 
-0.0165038 0.0261189 -0.00520996 
0.0149087 0.0124237 0.00191003 
0.0172529 -0.001485 -0.000130005 
0.0212705 -0.0138662 -0.00165002 
0.0128348 0.04597 -0.00116003 
0.0253126 -0.013672 -0.00189001 
0.0191819 -0.0119061 -0.00156995 
0.0148864 0.0435159 0.00405005 
0.013253 0.0122785 0.000810059 
0.019217 -0.0138854 -0.00169995 
0.0251304 -0.04393 -0.00570996 
0.0195196 -0.0417334 -0.00413 
0.0171253 -0.0130153 -0.00252002 
0.0133778 0.0003848 4.00391e-05 
0.0170139 -0.0155756 -0.00176001 
0.0211464 -0.011881 -0.00157996 
0.0115807 0.0394786 0.00405005 
0.0054059 0.0243453 0.00143994 
0.0093854 0.0441591 0.00212 
-0.0080127 -0.0353275 -0.01329 
-0.026883 0.0219435 -0.00508997 
0.0128597 -0.0018115 -2.00195e-05 
-0.0300802 -0.0217346 -0.00920996 
-0.0141866 0.0280632 -0.00131006 
0.0171651 -0.0316102 -0.00355005 
-0.0306521 0.0100389 -0.0110601 
0.0150765 0.0470736 -0.00759998 
-0.0308513 0.0042562 -0.00725 
0.010852 -0.0018383 6.00586e-05 
0.0132234 -0.0198208 -0.00193005 
0.0064122 0.0426914 0.00139001 
0.006841 0.0403935 0.00134998 
0.0072664 0.020428 0.00130005 
0.0054305 0.0386424 0.00218994 
0.0073151 0.018375 0.00141003 
0.0090738 -0.021385 -0.00203003 
0.0221929 0.0087399 -0.000400024 
0.0130912 -0.0177082 -0.00192004 
0.019234 0.0469544 -0.01554 
-0.0292016 -0.0157447 -0.00941003 
0.0170271 -0.0112655 -0.00235999 
-0.0295094 -0.0118766 -0.00934998 
-0.00484 -0.0259364 -0.00201001 
0.0048298 0.0428416 -0.00103003 
0.0152496 -0.023451 -0.00218994 
0.0052781 0.0185592 0.00138 
0.015216 -0.0216089 -0.00202002 
0.0030739 0.0380162 0.00219995 
0.0010652 0.0180058 0.00122998 
0.0249176 -0.0375885 -0.00415002 
-0.0106164 -0.0315636 -0.01154 
-0.0144765 0.024232 0.000280029 
0.0109387 0.0023001 0.000219971 
0.0231174 -0.0393258 -0.00422998 
0.0057513 0.04629 -0.00762 
-0.0298373 0.0038136 -0.00696997 
0.0109015 -0.0135203 -0.00162 
0.0053238 0.0422334 0.00278003 
-0.0126425 0.0301815 -0.00114001 
0.005078 0.0223248 0.00153003 
-0.0161625 -0.0332057 -0.00442004 
0.0131912 -0.0417909 -0.00409998 
0.0212077 -0.0378171 -0.00483997 
0.0130291 -0.043476 -0.00393994 
0.0031783 0.0363209 0.000829956 
-0.0116836 -0.0332351 -0.00978003 
0.0230815 -0.0375708 -0.00408997 
0.0051423 0.000535099 0.000280029 
-0.0154313 -0.0138262 -0.00243005 
0.004508 0.0424864 -0.00259998 
0.0029845 0.0385708 -0.00077002 
0.0255419 -0.0392061 -0.00406995 
0.0109764 -0.0396926 -0.00406995 
0.0071176 0.024383 0.00146997 
-0.0308217 0.0180255 -0.0075 
0.0011863 0.0343092 0.000540039 
-0.0051361 -0.0074343 -0.000199951 
0.0052548 -0.0014477 -0.000640015 
-0.0292614 0.0042828 -0.00340002 
0.0210159 0.000555401 0.000199951 
0.003056 0.032398 0.00213 
0.0193664 -0.002024 -8.99658e-05 
-0.0123215 0.033547 -0.00330005 
0.0152189 0.045075 -0.000599976 
0.0024675 0.0408904 -0.00678003 
-0.0208361 -0.0196075 -0.00280005 
0.0113683 -0.045271 -0.00565002 
-0.0027556 0.0314625 0.00188 
-0.0003757 0.0205049 0.00140002 
-0.0282996 0.0194555 -0.00325 
0.0032325 0.0003792 -0.000579956 
0.0232975 0.054294 -0.0164 
0.0092685 -0.0377885 -0.00488 
0.0024623 0.0385197 -0.00471997 
-0.0188038 0.0033316 -0.00051001 
-0.0123735 -0.0318997 -0.00344995 
0.000636101 0.0366349 -0.00269995 
-0.0149249 -0.010319 -0.000310059 
-0.0325887 0.0155165 -0.00897998 
-0.002899 0.0303089 0.00219995 
0.000705099 0.0055584 -0.000359985 
-0.0318956 -0.0042985 -0.01026 
0.0010635 -0.0015514 3.00293e-05 
-0.0139194 0.0337385 -0.01159 
0.0208506 -0.045653 -0.00577002 
0.0051033 -0.0198691 -0.00252002 
0.0245428 0.0495301 -0.00556995 
0.0167869 0.0075648 -0.000689941 
-0.0128979 -0.0277342 -0.01751 
0.01909 -0.0178693 -0.00181995 
0.0025641 0.0427961 -0.00681995 
0.0171999 -0.045791 -0.02123 
-0.0049172 0.0315591 0.00197998 
-0.0026105 0.0205081 0.00139001 
0.0050746 0.0204759 0.00216003 
0.007139 -0.035733 -0.00482996 
0.0188422 -0.046936 -0.01897 
-0.0009841 0.0024583 0.000300049 
-0.0011014 0.000450901 0.000189941 
0.0212834 0.0182796 0.00182996 
0.0066486 -0.0380087 -0.00688 
-0.0143672 -0.0272325 -0.00523999 
-0.0104503 -0.0278601 -0.00363 
-0.0030024 0.026195 0.00219995 
-0.0006544 0.0165783 0.00139001 
0.0190195 -0.0102658 -0.00241003 
-0.0301164 -0.0019108 -0.00576001 
-0.0311568 -0.0080548 -0.0126 
0.0131115 -0.045518 -0.02384 
0.0170494 0.0362852 0.00269995 
-0.013115 -0.0280373 -0.0129 
-0.0294559 0.0021581 -0.00526001 
-0.0126333 0.0103933 0.00191003 
-0.016833 0.0245618 -0.00506006 
0.001806 0.0433561 -0.00768994 
0.0216584 0.0449565 -0.00456006 
-0.0296991 0.0056771 -0.00712 
0.0211132 -0.0199993 -0.00191003 
-0.0092369 -0.0338885 -0.0171801 
-0.0188716 -0.000161499 2.00195e-05 
0.0252559 -0.0178333 -0.00262 
-0.0268831 0.0020851 -0.00106006 
-0.0268934 -0.0018684 -0.000109985 
0.0072828 0.000250702 -0.0005 
-0.0228912 0.0040245 0.000150024 
-0.0117216 -0.02962 -0.01136 
0.0109811 -0.0355801 -0.00380005 
-0.0131576 -0.0039961 -0.000699951 
-0.0112744 -0.031753 -0.01921 
-0.0146376 -0.0273644 -0.00763 
-0.0127402 0.0061256 0.000569946 
0.0159888 -0.046234 -0.0221899 
0.0012218 0.0323308 0.00234998 
-0.032605 0.0141545 -0.00896997 
0.0170585 -0.0038866 -0.00106995 
0.0272148 -0.043895 -0.00701001 
-0.0305178 -0.0180047 -0.0133199 
0.0169462 0.0262396 0.00197998 
-0.0209867 0.0181238 0.000660034 
-0.0288625 -0.0222832 -0.00562 
0.0031781 -0.037508 -0.00740002 
-0.0251057 -0.025333 -0.00709998 
0.0192064 0.000439602 1.00098e-05 
0.0173778 0.022378 0.00118994 
-0.0208999 0.0002099 3.00293e-05 
0.0161532 -0.046396 -0.00839001 
0.0053584 0.0020062 -0.00052002 
0.0251665 -0.0341345 -0.00464001 
-0.0250078 -0.0119527 -0.00180005 
-0.0248675 0.0161324 0.000619995 
0.0229883 0.0321457 0.00242004 
0.0107483 0.0180831 0.000959961 
-0.0288306 0.010115 -0.0015 
0.0190797 -0.043734 -0.00538 
0.0189148 -0.043168 -0.03866 
-0.0306509 -0.0158367 -0.0111801 
-0.0187362 -0.0254647 -0.00548999 
0.0113125 -0.0277626 -0.00289001 
0.0089528 -0.0176379 -0.00185999 
0.0171999 0.0218436 0.00188 
-0.0246395 0.0043744 0.00026001 
-0.0228749 -0.0256957 -0.00951001 
-0.0130427 -0.0038088 -6.99463e-05 
-0.0296063 -0.0100975 -0.00946997 
-0.0227469 0.0021006 0.000199951 
0.0090389 -0.044328 -0.02124 
-0.0232003 -0.0258463 -0.01325 
0.0170354 0.0179059 0.00193005 
-0.0024887 -0.0394964 -0.0152 
-0.0010506 0.0347057 -0.00101001 
-0.0288829 -0.0097827 -0.00556995 
0.0192407 0.012234 0.000810059 
-0.0306702 0.0142573 -0.00334998 
-0.0325558 0.0099294 -0.01127 
-0.0326522 0.0039921 -0.00758997 
0.002858 -0.0414808 -0.01751 
0.0151791 0.0382324 0.00270996 
0.0111183 0.034407 0.00268005 
0.0163478 0.0477172 -0.0128199 
-0.0009105 0.0020708 -0.000469971 
-0.0052175 -0.0364167 -0.01279 
0.0008729 -0.0277447 -0.00196997 
-0.0248661 0.0021049 6.99463e-05 
0.0004104 0.0369226 -0.00447998 
0.0092313 -0.043889 -0.0189 
-0.0131939 -0.028107 -0.0113 
0.0063789 -0.0404638 -0.01563 
-0.0030436 0.0343481 -0.00120996 
-0.0228834 0.0119102 0.000810059 
-0.0069981 -0.0177385 -0.00180005 
0.0166992 0.0407335 0.00131995 
0.0069683 -0.025634 -0.00217004 
0.0175982 0.0137616 -0.000660034 
-0.000997601 0.0261357 0.00219995 
-0.0067753 0.0161883 0.00131006 
0.0192214 0.0161946 0.000910034 
-0.0264524 -0.0260348 -0.00494995 
-0.0267115 -0.0238061 -0.01387 
0.0132518 0.0201113 0.00205005 
-0.0327948 0.0079428 -0.01083 
0.0011474 -0.015578 -0.00175 
0.0032424 -0.0237952 -0.00266003 
0.0191709 -0.0418605 -0.00509998 
0.02302 0.0436216 0.000780029 
0.0191791 -0.0389549 -0.00396997 
-0.0267689 0.0122791 0.00023999 
-0.0297922 -0.0083076 -0.00943005 
-0.0302349 8.30002e-05 -0.00529004 
-0.0050007 -0.0216557 -0.00265002 
0.0110076 0.0143343 0.00108997 
-0.0134925 0.0262331 -0.000849976 
0.0131276 -0.044764 -0.00426001 
0.0210524 -0.0399413 -0.00484998 
0.0169014 0.0322525 0.00232996 
0.0090387 -0.0277697 -0.00281006 
0.0132761 0.0375299 0.00409998 
0.0033197 0.0226784 0.00140002 
-0.0139241 0.0295344 -0.000900024 
0.0072991 0.0421665 0.00243005 
-0.0169008 -0.0259798 -0.00739001 
-0.0269163 -0.0216795 -0.00917004 
-0.0269309 -0.005787 -0.00157996 
-0.0314765 -0.0016968 -0.01099 
-0.000936199 -0.0215952 -0.00190002 
0.0053224 0.0084605 0.00077002 
0.0112344 0.0221764 0.00209998 
0.0035493 0.010268 0.00192004 
-0.0325628 0.0120225 -0.00931995 
-0.0128591 0.0083395 0.000709961 
-0.016763 0.003681 -0.000390015 
0.0011961 -0.031737 -0.00347998 
0.0050548 -0.0376538 -0.00731995 
-0.0211546 -0.0256639 -0.00754004 
0.0153874 0.000452202 -1.00098e-05 
-0.0150228 -0.0261753 -0.00718005 
-0.0308475 0.0124149 -0.00531995 
-0.0162994 -0.029941 -0.00493994 
-0.0305858 -0.009847 -0.0095 
0.0250194 0.0239546 0.00231006 
-0.0301958 -0.0053957 -0.00571997 
0.0088724 -0.0218176 -0.00254004 
0.0189677 -0.046492 -0.00854004 
0.0212853 0.0474219 -0.01351 
0.0031645 0.0023772 -0.00051001 
-0.0304477 0.0103927 -0.00348999 
-0.0050082 -0.0017549 -0.000599976 
-0.0207389 -0.0265883 -0.0140601 
0.0195564 0.0184359 0.00193005 
-0.0148583 0.0241661 -0.00137 
0.0124665 -0.047367 -0.01699 
0.007098 0.0126388 0.00112 
0.017171 0.0419868 0.00272998 
-0.023051 -0.0255625 -0.00733997 
-0.0071049 -0.00399 -0.00073999 
-0.0246978 0.0204935 -0.00330005 
-0.0006847 7.74994e-05 -0.000640015 
0.0030694 -0.0154995 -0.00179004 
0.0012584 -0.0384297 -0.01527 
0.0228903 0.0442957 -0.00314001 
0.0011853 -0.0237333 -0.00268005 
0.025217 -0.0416877 -0.00534998 
0.0172166 -0.0396215 -0.00406995 
0.0151325 -0.0339863 -0.00362 
-0.0128667 -0.002005 -0.000699951 
-0.013069 -0.0302003 -0.01934 
-0.0308171 -0.0081318 -0.01116 
0.0197379 -0.04373 -0.00692004 
-0.0091145 -0.0097651 -0.00105005 
0.0129951 -0.043736 -0.00543005 
0.0149649 -0.042138 -0.00398999 
-0.0150318 -0.0038175 -0.000650024 
0.013008 -0.0359113 -0.00372998 
-0.0268888 0.0160495 0.000209961 
-0.0286212 0.0201715 -0.00533997 
-0.0068094 -0.0377735 -0.01315 
-0.0293823 -0.0185498 -0.0136801 
0.0189621 0.0261953 0.00194995 
0.0072224 0.0103234 0.000920044 
0.0151231 -0.0219437 -0.00267004 
-0.0055539 -0.0357475 -0.01191 
0.0036 0.0444142 -0.00163 
-0.0025975 -0.0285152 -0.00217004 
-0.0143057 0.0300319 -0.00705005 
0.0102953 0.0459429 -0.00871997 
-0.0009056 0.0123842 0.00105005 
-0.0271955 -0.0044704 -0.000180054 
0.0031941 -0.0175277 -0.00194995 
-0.029727 0.0184607 -0.01137 
-0.029828 -0.0045351 -0.00777002 
-0.0253195 -0.0250542 -0.01123 
-0.0312027 -0.0017421 -0.00927002 
-0.0327789 0.008236 -0.00918005 
-0.028358 0.000222401 -0.00144995 
-0.014737 0.0159711 0.00107996 
-0.0304318 0.0181057 -0.01209 
-0.0303011 -0.0033818 -0.00762 
0.026359 -0.0199202 -0.00168005 
-0.0139929 -0.0330384 -0.01789 
-0.0308794 0.0123163 -0.01099 
0.0033933 0.0443496 -0.00707996 
-0.0311959 0.0061236 -0.00746997 
-0.0269271 -0.0040335 -0.00158997 
0.0129054 -0.0297726 -0.00312 
0.0083717 -0.0180144 -0.00242004 
-0.0171444 -0.0060873 -0.000810059 
-0.0169028 -0.0279245 -0.0153199 
0.0211638 -0.0419031 -0.00506995 
-0.0009748 -0.0157441 -0.00178003 
0.0248027 0.0388447 0.00233997 
0.0191578 0.0180962 0.000930054 
-0.0029175 -0.0316518 -0.00327002 
0.0054495 -0.0416937 -0.01102 
0.0155894 0.0461501 -0.00165002 
0.0229233 0.0481585 -0.00553003 
0.0012216 -0.0257329 -0.00271997 
0.0129572 -0.0017643 -0.000800049 
0.0092349 0.0364052 0.00262 
-0.0046977 0.0201266 0.00204004 
-0.0128627 -0.0237576 -0.00338 
-0.0032928 -0.0175711 -0.00252002 
0.0193071 0.0465651 -0.00343994 
-0.020552 -0.0275157 -0.01126 
-0.0324121 0.0044231 -0.00910999 
-0.0208969 0.0119397 0.00076001 
-0.0089942 -0.017853 -0.00176001 
0.0247517 0.0063032 -0.000900024 
0.0032883 0.0166251 0.00189001 
-0.0251267 -0.0197706 -0.00333997 
0.0151764 0.0223503 0.00131995 
-0.0266693 4.28009e-05 -3.00293e-05 
-0.0230453 -0.0117158 -0.00148999 
-0.0127229 0.031852 -0.00322998 
0.0114043 0.0123313 0.00101001 
-0.0046532 -0.0395676 -0.01422 
-0.0144348 -0.0269708 -0.01885 
-0.0145622 0.0261784 -0.00129004 
-0.0028003 -0.0218846 -0.00259998 
0.0090833 0.0143396 0.00107996 
0.0209904 -0.0015293 -1.00098e-05 
0.0090115 0.0065001 0.00047998 
-0.0083719 -0.0353955 -0.00475 
-0.0110536 0.0301307 0.000959961 
-0.0324536 -0.014977 -0.0131801 
0.0274349 -0.047532 -0.01116 
0.0149891 0.0282002 0.00204004 
-0.0067768 -0.0359915 -0.01349 
-0.0285812 -0.0219957 -0.01547 
0.0108785 -0.0205533 -0.00264001 
-0.0187946 -0.0078876 -0.000839966 
0.0113001 -0.0319416 -0.00347998 
0.0148366 -0.0038649 -0.000780029 
-0.0289382 0.0081635 -0.00154004 
-0.0116039 -0.0286853 -0.00788 
-0.0008939 0.0063898 0.000630005 
0.0031084 -0.0015566 5.00488e-05 
-0.0308842 -0.0038145 -0.00938 
0.0250832 -0.0198524 -0.00282996 
-0.0168539 0.0277913 -0.00942004 
0.0229126 0.0061736 0.000290039 
-0.028569 0.0181232 -0.00119995 
0.0263882 -0.047205 -0.00778003 
0.0249597 -0.0058293 -0.00127002 
-0.0011804 -0.0415653 -0.01461 
-0.0029837 -0.0158644 -0.00176001 
0.0093444 0.0343469 0.00253003 
0.006984 0.0263354 0.00214001 
0.0029616 0.0404106 -0.00491003 
-0.0087708 0.0220777 0.00206995 
-0.0303756 0.002151 -0.00528003 
-0.0148518 -0.0278883 -0.01336 
0.0143122 -0.045574 -0.02323 
0.0072785 0.0364098 0.0025 
-0.0293925 0.0074709 -0.00497998 
-0.0206105 -0.0239691 -0.00518994 
0.0153072 -0.045753 -0.00725 
-0.0148785 -0.0118808 -0.00112 
-0.0032309 -0.0381442 -0.01353 
-0.0067328 0.0040169 0.00047998 
-0.0209671 -0.0138171 -0.00155005 
-0.0108011 -0.0354725 -0.00534998 
-0.0066177 0.0122086 0.00194995 
-0.0268914 -0.0158469 -0.00351001 
0.0191125 -0.0180127 -0.00256995 
-0.0110219 -0.0056789 -0.000810059 
0.0071938 -0.0298475 -0.00309998 
-0.0150102 -0.0280062 -0.01541 
-0.0286267 -0.0039478 -0.00351001 
-0.0189299 -0.0290343 -0.01609 
0.0232266 3.15018e-05 -0.000839966 
-0.016004 -0.0309857 -0.01214 
-0.0066553 0.0021847 0.000369995 
-0.0287402 -0.001738 -0.00339001 
-0.007267 0.0110346 0.00197998 
-0.0268201 -0.0137534 -0.00317004 
-0.016762 -0.0295036 -0.0172 
0.0149901 -0.0158619 -0.00181995 
0.0212932 0.0164237 0.00188 
0.0229446 0.0383579 0.0025 
-0.018918 0.0060579 0.00022998 
-0.0166885 0.0182014 0.000630005 
-0.0251856 0.0059277 -0.00051001 
-0.0070033 -0.0297221 -0.00331995 
0.0214264 0.0081698 0.000569946 
-0.0244088 -0.019711 -0.00212 
-0.0267996 0.0202777 -0.00114001 
0.0112013 0.0062639 0.000410034 
-0.000983801 0.0356602 -0.00141003 
0.0148857 0.0443485 0.00108997 
-0.0229935 -0.0180326 -0.00284998 
0.0049549 -0.0033418 -0.000859985 
-0.0010671 -0.0219299 -0.00272998 
0.0070308 0.014517 0.00117004 
-0.0058035 -0.0294138 -0.00179004 
-0.0309669 0.0155999 -0.00731995 
-0.0309897 -0.0098961 -0.01146 
-0.0310298 0.0184871 -0.00933997 
0.001032 0.0201646 0.00206006 
0.0150322 0.0361455 0.00270996 
-0.0295879 0.0096379 -0.00717004 
0.0052823 0.0162666 0.00127002 
-0.0294114 -0.007665 -0.00755005 
-0.0170061 -0.0296163 -0.01124 
-0.0324153 0.0026027 -0.009 
0.000927401 -0.0056906 -0.000939941 
0.021636 0.0205021 0.00204004 
0.0271509 -0.0371387 -0.00427002 
-0.0250649 -0.021814 -0.00530005 
0.0168339 0.0277668 0.00154004 
-0.030407 -0.0199141 -0.0114399 
-0.0250234 -0.0238549 -0.0132 
0.015297 0.0199552 0.00203003 
-0.0070056 -0.0341656 -0.00912 
-0.0189381 0.0102035 0.000630005 
-0.0308065 0.0060807 -0.00532996 
0.0091926 0.0242769 0.00223999 
0.0287925 -0.043555 -0.00714001 
-0.0130736 0.030191 -0.00291003 
0.0169917 0.0098694 0.00173999 
-0.0185065 0.0241157 -0.00513 
-0.0188015 -0.0316219 -0.00477002 
0.0036369 -0.0387586 -0.00792004 
0.0221865 -0.0084536 -0.00238 
-0.0010599 -0.0096403 -0.00121997 
0.0109851 -0.0076647 -0.00117004 
-0.0106503 -0.0198574 -0.00252002 
0.0035119 0.0404449 -0.00319995 
0.0029568 0.034586 0.000859985 
-0.0270052 -0.0199445 -0.00525 
-0.0186277 -0.0273925 -0.00966003 
0.0011446 0.0182709 0.00191003 
-0.0029733 -0.036167 -0.00747998 
-0.0167939 0.0142579 0.00108997 
-0.0124866 0.0161425 0.00121997 
0.0088175 0.026351 0.00234998 
0.0191189 0.0061958 0.000420044 
0.0208112 -0.0200691 -0.00277002 
-0.0066561 -0.0356106 -0.00731995 
-0.0028545 -0.0354394 -0.00556995 
-0.0068642 0.0221694 0.00208997 
0.0109523 -0.045572 -0.01112 
-0.0288264 0.0061841 -0.00163 
-0.0251948 -0.021763 -0.00688 
0.0196696 0.0137454 0.00175 
0.003109 -0.0075793 -0.001 
0.0131529 -4.23012e-05 -0.00077002 
-0.009656 -0.0305592 -0.01441 
0.0135682 0.0467231 -0.00815002 
-0.0091644 -0.0318166 -0.0154 
-0.0227876 0.0183296 -0.000839966 
-0.0247854 -0.0179252 -0.00216003 
0.0169276 0.0131096 0.00190002 
-0.0151449 0.0259797 -0.00504004 
-0.0049336 -0.0347236 -0.00221997 
-0.0067838 0.0122272 0.00106995 
-0.02667 -0.0228192 -0.00402002 
-0.0266696 -0.0235606 -0.01539 
0.0052164 -0.0395979 -0.0134399 
-0.0205929 0.0220833 -0.00313 
-0.0105512 0.0140215 0.00102002 
-0.0189114 -0.0258675 -0.00743994 
0.000951401 0.002176 -0.000609985 
0.0134435 -0.046334 -0.00926001 
-0.0107472 -0.0016264 4.00391e-05 
0.0128642 -0.0057028 -0.000900024 
0.0033101 -0.0417 -0.01579 
0.0111814 0.0083779 0.000650024 
-0.0111564 -0.0335736 -0.02088 
-0.0147901 0.0181796 0.000969971 
-0.0299627 -0.0217004 -0.01595 
-0.0171101 -0.0079867 -0.00075 
0.0095467 -0.0197994 -0.00254004 
-0.0187719 0.0004282 -0.00073999 
0.0090583 -0.043548 -0.00912 
-0.0270208 0.013733 -0.000589966 
0.025433 0.0456461 -0.00453003 
0.007155 0.0063269 0.00047998 
-0.006616 -0.0353979 -0.00459998 
-0.0112564 -0.0300003 -0.01339 
-0.0249336 -0.02179 -0.00354004 
0.0149874 0.0341485 0.00253003 
-0.0245365 -0.025718 -0.01509 
0.0072236 -0.0417574 -0.0134 
-0.0064429 -0.0338209 -0.00193994 
-0.0089823 0.0101207 0.000819946 
0.0110496 -0.0298062 -0.00306995 
0.0031954 -0.038222 -0.01146 
-0.0166955 -0.0273763 -0.00957996 
-0.0245313 -0.0254255 -0.01321 
0.0150804 0.0178546 0.00197998 
-0.012451 -0.0315374 -0.02103 
-0.0281878 -0.0200388 -0.00559998 
-0.0049306 0.0261819 0.00228003 
-0.013808 0.0281248 -0.00620996 
-0.0026438 0.0163066 0.00137 
0.0031875 0.0183468 0.00145996 
0.0091571 0.0382271 0.00269995 
-0.000951401 0.01036 0.000900024 
-0.0291284 -0.0139131 -0.00735999 
-0.0037336 -0.0069184 -3.00293e-05 
0.0028673 -0.00164 -0.000650024 
0.0010043 -0.0376265 -0.0115 
0.0150783 0.0320726 0.00245996 
-0.007693 -0.0336098 -0.01587 
-0.0070411 5.12009e-05 -0.000579956 
0.0205709 -0.045467 -0.02774 
0.0068769 -0.0076577 -0.00106006 
0.0251416 -0.0318025 -0.00360999 
0.0089613 -0.0258421 -0.00280005 
-0.0152811 0.0285418 -0.01077 
-0.0059934 0.0353521 -0.00618994 
-0.0305309 0.0043587 -0.00555005 
-0.0049084 -0.0343371 -0.00820996 
-0.0108397 0.0179491 0.00131995 
0.0068351 -0.01141 -0.00138 
-0.0049599 -0.0357598 -0.00946997 
0.0090452 0.0083654 0.000719971 
-0.004983 -0.0218664 -0.00181006 
0.0032463 -0.0216104 -0.00256995 
0.019257 0.0143164 0.000839966 
0.0033293 -0.0258839 -0.00283997 
0.003474 -0.039471 -0.01146 
-0.0035147 -0.0361447 -0.01127 
-0.0228689 -0.0136146 -0.00169995 
-0.0091899 -0.0282071 -0.00222998 
-0.013483 0.0305154 -0.00676001 
-0.0109692 -0.0118298 -0.00113 
0.0051812 0.0222125 0.00216003 
0.0249844 -0.0157981 -0.00257996 
0.0072631 0.0304327 0.00233997 
-0.0010883 0.0339161 0.000339966 
0.011119 0.0403157 0.00269995 
0.0210703 0.0263559 0.00195996 
-0.0303633 0.0020914 -0.00389001 
0.0170447 0.0342956 0.00253003 
-0.0306128 0.0161991 -0.00551001 
-0.00696 0.030037 0.00212 
-0.012767 -0.0316051 -0.00956006 
-0.0186588 -0.002062 -8.99658e-05 
-0.0125251 -0.0273876 -0.0035 
-0.0124299 -0.0275941 -0.00556006 
0.0148792 -0.0117187 -0.00152002 
0.011021 0.042306 0.00417004 
-0.0109279 0.0102268 0.000939941 
-0.0146008 0.0282173 -0.00709998 
0.0245861 0.030242 0.00210999 
-0.0023985 -0.0359521 -0.00955005 
-0.0045761 -0.0353712 -0.00507996 
-0.0089062 0.0180135 0.00130005 
-0.0258286 -0.007818 -0.00260999 
-0.0088064 0.0201269 0.00196997 
-0.000832001 0.0043674 0.000410034 
0.0210327 -0.0141836 -0.00245996 
-0.0047404 0.0082336 0.000689941 
0.0209154 -0.0059825 -0.00115002 
-0.0128054 0.001616 -0.000670044 
-0.0047669 -0.033897 -0.00522998 
0.0214891 -0.044024 -0.00679004 
-0.0069541 -0.0098748 -0.00117004 
9.79996e-05 0.0357234 2.00195e-05 
-0.0310301 0.014118 -0.00720996 
0.0189628 0.0443504 -0.00130005 
-0.0169455 -0.0219751 -0.00316003 
-0.0086084 0.0141346 0.00106006 
-0.0069673 0.0357094 -0.00310999 
-0.0267624 0.0042472 -0.000800049 
0.0192195 0.0419599 0.00264001 
0.0011276 0.0103925 0.000890015 
-0.0088809 0.0281802 0.00210999 
0.000989201 0.0437417 -0.00925 
0.0132027 0.0022743 5.00488e-05 
-0.0188285 -0.0197622 -0.00191003 
0.0268461 -0.031646 -0.00381006 
0.0215828 0.013665 0.00173999 
-0.0030537 -0.0075592 -0.000949951 
0.0074758 -0.0357381 -0.00380005 
-0.0171022 -0.0037832 -0.000719971 
-0.007036 -0.0118674 -0.00135999 
0.0047795 -0.0386504 -0.0143 
0.0212953 0.01024 0.000560059 
-0.0295431 0.0116154 -0.00346997 
-0.0067449 0.0083036 0.000859985 
-0.0074249 -0.0336883 -0.01401 
-0.0310581 0.0124915 -0.00948999 
0.0033753 0.0105223 0.00097998 
-0.009041 0.0001847 -0.00051001 
0.0281913 -0.04616 -0.01058 
0.0028122 -0.0382389 -0.01342 
0.0150861 0.0018725 -0.000619995 
-0.014795 0.0261275 -0.00325 
-0.0228838 0.0181378 0.00048999 
-0.005012 -0.0277938 -0.00285999 
0.0090567 -0.047294 -0.01955 
-0.0106829 0.0021367 0.000160034 
0.0111768 -0.02388 -0.00263 
-0.006845 -0.0320532 -0.00501001 
0.0152053 -0.046268 -0.01812 
-0.018535 0.0218742 -0.00160999 
0.0065416 -0.0397681 -0.01175 
-0.0088497 -0.0257951 -0.00293005 
-0.0209546 -0.0018437 -4.00391e-05 
0.0210798 0.0241171 0.00145996 
-0.0074386 -0.0356865 -0.01713 
0.0116229 -0.046081 -0.00431006 
0.0267233 -0.0399549 -0.00510999 
-0.0323508 -0.0170819 -0.01358 
0.0148433 0.0262053 0.00194995 
-0.0227941 0.000202702 4.00391e-05 
0.0192521 0.0221541 0.00126001 
-0.0276982 -0.0201521 -0.01147 
-0.0271567 -0.0060008 -0.000150024 
0.0206262 0.0279724 0.0015 
0.0068904 -0.0195359 -0.00201001 
0.0227766 -0.005908 -0.00112 
-0.0226648 -0.0237001 -0.00365002 
0.0171671 -0.0420215 -0.00515002 
0.021205 0.0040846 0.000140015 
0.0253023 -0.04591 -0.00928003 
-0.0025387 0.0021047 -0.00048999 
-0.0313049 0.0122859 -0.00739001 
0.0008657 0.0041135 -0.000369995 
0.0006453 -0.0052809 0.000140015 
-0.0069149 -0.0158395 -0.00164001 
0.0274725 -0.0390882 -0.00416003 
0.0051531 -0.0314797 -0.00339001 
-0.004076 0.0040562 -0.000430054 
-0.0026683 0.0283874 0.00139001 
-0.0190673 0.0205046 -0.00110999 
-0.0290095 -0.020605 -0.01463 
0.0012822 -0.0296795 -0.00303003 
-0.0114835 0.0308231 -0.000670044 
-0.0080257 -0.0376458 -0.01803 
0.0231916 0.0220636 0.00115002 
0.0132068 0.0180199 0.00212 
-0.0104609 0.0159846 0.00113 
-0.0111194 -0.0298686 -0.00745996 
0.002881 0.0263059 0.00221997 
-0.0294735 -0.0016024 -0.00538 
0.0249251 -0.0103688 -0.00255005 
0.0071356 0.03239 0.00231995 
-0.0110019 -0.0279063 -0.00539001 
0.0170282 -0.0118187 -0.00167004 
-0.0107711 0.0241464 0.00194995 
-0.00684 -0.0020681 -0.000579956 
0.0170723 -0.0336773 -0.00373999 
-0.0108372 -0.0179554 -0.00168994 
-0.0045739 -0.001674 0.000189941 
-0.0187427 0.0120948 0.000920044 
-0.0151049 -0.0265191 -0.00868994 
0.0230664 -0.0298152 -0.00358997 
0.0250673 0.0195894 0.00188 
0.0051689 -0.005591 -0.00103003 
0.0171951 0.0435874 -0.00235999 
-0.0054449 -0.0377889 -0.01514 
-0.0051616 -0.0236461 -0.00279004 
0.0270926 -0.0418443 -0.00546997 
-0.0149442 -0.0061214 -0.00027002 
0.0089385 -0.0156123 -0.00180005 
-0.0151036 -0.0077834 -0.000790039 
0.0150696 -0.0320241 -0.00345996 
0.0228226 0.0283122 0.00210999 
-0.0309417 0.0078956 -0.00928003 
-0.0075301 -0.0137038 -0.000209961 
-0.008833 0.0081059 0.00073999 
0.0148322 -0.037749 -0.00390002 
0.0245939 0.0101475 0.000369995 
0.0138788 0.0470311 -0.01474 
-0.0207859 0.0159407 0.000800049 
-0.0274618 -0.0162238 -0.00507996 
0.0232017 0.0228218 0.00178003 
0.0250467 -0.0122665 -0.00253003 
-0.0287018 -0.0197262 -0.00959998 
0.0247452 0.0162221 0.000829956 
-0.0087819 0.0262544 0.00223999 
-0.0326053 0.0104566 -0.00728003 
0.0010036 0.0164287 0.00146997 
-0.0087665 0.0334756 -0.00575 
-0.0292389 0.0055291 -0.00488 
0.0055335 -0.045028 -0.01867 
-0.0167941 0.0099828 0.00077002 
0.011055 0.0445914 0.00119995 
0.0028756 0.0364796 -0.000790039 
-0.0047032 0.0241102 0.00221997 
-0.0190511 0.0228835 -0.00480005 
0.0009911 0.0388243 -0.00706995 
0.0249755 -0.0038791 -0.00097998 
-0.0299594 0.0194764 -0.00717004 
-0.0306356 -0.0138275 -0.01103 
0.0210226 -0.0356821 -0.00393005 
-0.0283879 -0.0040595 -0.00179004 
0.0210228 0.00603 0.000349976 
0.0230277 -0.0198937 -0.00276001 
0.020878 0.0040417 -0.000630005 
-0.0188762 -0.0241507 -0.00498999 
0.0244996 -0.044909 -0.02358 
-0.0300584 0.0178558 -0.00565002 
0.0129405 0.0361663 0.00291003 
0.0251385 -0.0379594 -0.00477002 
0.0211586 -0.0297996 -0.00334998 
0.0071208 -0.005599 -0.000959961 
-0.0011906 0.0302847 0.00212 
-0.0190005 -0.0159523 -0.00162 
-0.0109518 -0.0057774 -6.00586e-05 
-0.0012977 0.0369197 -0.00478003 
-0.031357 0.0040131 -0.00928003 
-0.0148305 -0.0278641 -0.0114 
0.0049746 -0.0398778 -0.01547 
-0.0090422 0.0341594 -0.000949951 
0.0230726 -0.0358901 -0.00397998 
0.0253661 -0.0159182 -0.00194995 
0.0087874 -0.043829 -0.01515 
0.0214237 -0.045599 -0.00721997 
-0.0010799 -0.003678 -0.000640015 
-0.021033 -0.009769 -0.00112 
-0.0068905 0.0200149 0.00146997 
-0.0245612 0.0201721 -0.00125 
-0.0279816 -0.0236985 -0.00578003 
-0.0286938 0.0041261 -0.00151001 
-0.0050172 0.0359545 -0.00344995 
0.0171462 -0.0399235 -0.00483997 
0.0211118 0.0162791 0.00077002 
0.0151048 -0.0138305 -0.00177002 
-0.0248362 -0.0159111 -0.00185999 
0.0115149 0.0164428 0.00113 
-0.0313299 0.0102932 -0.00746997 
-0.0206558 -0.0289054 -0.01025 
0.0252304 -0.0258 -0.00329004 
-0.0167458 0.0294612 -0.0106899 
0.0071188 -0.0317745 -0.00340002 
-0.0028713 -0.0096859 -0.00116003 
0.0232563 0.020205 0.00105005 
0.0251481 -0.0398181 -0.00504004 
-0.0187889 0.0042125 0.000199951 
-0.0169866 -0.0137857 -0.00132996 
-0.0089374 -0.0198127 -0.00193994 
0.0270485 -0.0336153 -0.004 
-0.0274636 -0.0127486 -0.00227002 
0.012956 -0.0219595 -0.00260999 
0.0173605 0.0201129 0.000920044 
0.0230627 0.0400597 0.00237 
-0.0304024 0.0194718 -0.00873999 
0.0050049 0.0184276 0.00197998 
-0.0009289 -0.0275591 -0.00284998 
0.0151612 0.0419318 0.00412 
0.0171717 0.0101338 0.000670044 
-0.0043741 -0.0372398 -0.00958997 
0.0228718 0.0362712 0.00264001 
0.0052064 0.0103282 0.000939941 
-0.0147998 -0.0334465 -0.00948999 
0.0267361 -0.0312496 -0.00453003 
0.0112996 -0.0377944 -0.00401001 
0.0191196 0.0440874 0.00256006 
-0.028719 0.0162059 -0.00125 
-0.012954 0.0039691 0.000329956 
-0.0066756 -0.0138786 -0.00155005 
-0.0229698 -0.0098587 -0.00125 
0.0230527 -0.0397848 -0.00489001 
0.0211744 0.006092 -0.000689941 
0.0149586 0.0162558 0.00198999 
0.0231733 0.0182904 0.000959961 
0.0210738 0.0381397 0.00268994 
0.0130637 -0.0338149 -0.00347998 
-0.0110003 -0.001977 -0.000560059 
0.0233221 0.0263963 0.00141003 
-0.0047963 0.0221738 0.00215002 
0.0253186 -0.0237011 -0.00315002 
-0.0189057 0.0021654 0.000140015 
-0.0015545 -0.0069816 -0.000150024 
0.0249042 -0.0020419 -0.000920044 
-0.0108476 -0.0218906 -0.00260999 
0.0012167 0.0144439 0.00120996 
-0.0248161 0.0218419 -0.00258997 
-0.0309782 -0.0118709 -0.01113 
0.0070379 -0.041764 -0.01558 
0.0048682 -0.04393 -0.01854 
-0.0246796 0.0198726 0.00022998 
-0.0027783 0.0370169 -0.00530005 
0.0246676 0.0079606 0.000310059 
-0.0225537 0.020255 -0.00125 
0.0231235 0.0240222 0.00131006 
0.0070233 -0.0136003 -0.00162 
-0.0108934 0.004078 0.000430054 
0.0092689 0.0206475 0.00204004 
0.0210721 0.0475232 -0.00931006 
-0.0227627 0.0098583 0.000540039 
-0.0279098 -0.0232403 -0.01301 
0.0111044 0.0197745 0.00217004 
0.0248775 -8.10013e-05 -0.000780029 
-0.0287733 -0.0060081 -0.00352002 
-0.0145434 -0.0317705 -0.0118101 
-0.016916 0.0019876 0.000189941 
0.0268438 -0.0237575 -0.00320996 
-0.0149727 -0.0098607 -0.00103003 
-0.0293968 0.0163944 -0.00490002 
-0.0167916 0.0017806 -0.000369995 
-0.0084592 -0.0336135 -0.00539001 
-0.0170284 -0.029257 -0.01504 
0.0211385 -8.61015e-05 -0.00075 
-0.0305695 -0.0178165 -0.01149 
0.0010891 -0.0218023 -0.00255005 
0.0212608 0.0142054 0.00077002 
-0.0306786 -0.0018781 -0.00743005 
0.0229753 -0.0117969 -0.00155005 
-0.0274551 -0.0138631 -0.00485999 
-0.0268432 0.0062525 9.99756e-05 
0.0056289 0.0441363 0.000469971 
-0.0211413 -0.0059348 -0.000810059 
-0.0326503 0.0062566 -0.00916003 
-0.0286121 0.0021785 -0.00151001 
-0.0087726 -0.0220847 -0.00212 
0.0133239 0.0082315 0.000630005 
0.0044272 -0.0417518 -0.02062 
