ply
format ascii 1.0
comment Created by CloudCompare v2.11 alpha (Anoia)
comment Created 9/13/19 3:43 PM
obj_info Generated by CloudCompare!
element vertex 1889
property float x
property float y
property float z
end_header
1.79004 46.6328 18.8903 
-2.48999 -19.9566 38.0517 
1.93005 14.0319 45.0745 
-2.67004 -3.6361 52.4595 
-3.02002 -19.9134 -1.3529 
-7.54004 -32.0052 37.633 
-3.45996 -26.3706 48.0188 
1.81006 12.5014 38.1292 
-4.03003 -37.5556 27.8308 
1.92004 15.8804 42.8263 
1.93005 20.047 37.9811 
-0.76001 8.275 9.6144 
-4.05005 -26.0588 45.7517 
1.93005 14.03 42.6679 
2.01001 15.7896 45.0318 
-1.39001 42.3361 21.1624 
-9.09998 30.304 38.5304 
-3.57996 -36.8882 34.1337 
1.92004 16.3264 40.4401 
-2.71997 -37.2862 32.2073 
-1.33997 40.6631 21.8042 
-7.71997 -27.274 41.6692 
0.0100098 -3.3658 26.2576 
3.93994 35.5761 8.5616 
-2.81995 -37.1614 30.0352 
2.18005 22.472 37.921 
2.02002 14.675 36.0464 
-5.37 -37.2352 24.6077 
-4.10999 -35.7058 -3.1497 
-11.48 -26.587 44.15 
3.31006 43.7455 13.7103 
-16.21 -44.72 17.062 
4.13 39.4225 8.4263 
1.30005 24.1444 13.8743 
3.98999 40.4877 15.6398 
-14.5 -26.6738 39.4969 
-9.97998 -7.6663 56.9693 
-2.47998 -16.2409 12.238 
3.93005 40.302 6.5192 
1.43994 24.2429 12.2474 
-2.31995 -16.1835 16.8466 
-15.45 -47.281 0.793701 
0.449951 36.4159 23.3858 
-1.68994 38.0305 23.6366 
-11.12 -42.2066 16.3713 
2.17004 34.0195 23.0998 
-4.46997 -33.9853 5.5143 
-5.12 -37.9533 -1.7306 
-5.45996 -39.0876 19.77 
-2.38 -14.359 24.2444 
-2.06995 -25.8787 1.573 
0.319946 39.5795 23.5994 
-7.52002 -37.8083 31.6533 
1.83997 14.2417 30.495 
-5.33997 -37.4618 21.7592 
-0.780029 7.8299 51.9156 
-3.41003 37.4511 25.307 
-4.16003 -25.2945 39.9992 
-3.94995 -37.387 17.6316 
0.390015 38.318 23.507 
-9.29004 -44.224 14.612 
-0.5 0.00630188 45.7303 
-5.69995 -24.9214 49.1292 
-4.66003 -32.1639 3.2105 
-3.62 -37.4094 20.4964 
-3.25 -35.5282 24.5044 
-4.93994 11.8089 54.4288 
-10.5 -25.9384 42.7679 
-2.09998 -25.7419 33.6733 
2.15002 29.7339 35.1387 
-12.96 -32.3623 34.682 
-3.93005 -35.5698 19.7539 
0.25 33.7553 27.3505 
-5.18005 3.8811 54.2843 
0.0600586 19.5527 51.4254 
-4.62 -35.9815 5.8243 
-7.83997 -37.2814 27.5215 
-3.37 -35.602 22.3303 
-23.64 -45.597 13.7073 
2.63 36.2195 21.0281 
-6.21997 -36.7146 31.1674 
-12.79 10.5557 55.9848 
-7.18005 -37.781 29.8064 
-2.43994 -20.068 33.9551 
-7.23999 11.6069 54.6774 
-12.9301 -19.1245 55.5915 
-2.67004 3.6536 52.7576 
-17.4399 -40.1518 20.2202 
1.87 16.204 33.5646 
-2.18994 -29.6966 26.1049 
1.52002 33.4659 1.5925 
3.69995 46.6181 14.7247 
1.67004 30.0796 8.7728 
-13.8 -28.7164 46.0856 
1.47998 26.3705 11.2382 
1.47998 41.5747 15.1892 
1.13 40.4221 16.0004 
-10.25 25.6089 45.5486 
-13.51 -47.353 13.7309 
-6.19995 -47.973 8.5603 
1.54004 26.4303 17.9153 
-7.34998 -47.651 9.2772 
2.18005 39.8067 21.8909 
1.43994 20.3512 20.0554 
1.94995 15.2822 48.9054 
-6.43994 -47.286 13.655 
1.66003 28.16 22.4381 
1.54004 26.6712 23.3101 
1.88 14.1394 51.4524 
2.05005 11.769 0.222401 
2.05005 15.6843 -0.0988007 
1.68994 11.6853 1.3819 
-7.81006 23.8433 48.2167 
3.94995 37.6323 6.2906 
1.41003 22.1964 15.9059 
1.68994 11.7704 3.3006 
-1.78003 7.191 55.0675 
0.0100098 -3.56 19.8811 
1.64001 29.8857 20.1065 
-12.7 -27.8748 46.1523 
1.73999 15.6714 1.486 
-0.800049 -3.8042 48.0009 
1.63 30.0089 1.2338 
0.0899658 -5.4804 17.82 
0.0699463 -1.7474 1.7074 
4.45996 39.4826 10.1297 
1.64001 24.4871 23.5931 
-7.47998 -27.0323 45.8388 
-5.02002 -27.4913 34.5454 
-0.119995 8.5342 53.0614 
-0.619995 42.5783 0.9184 
1.82996 13.9069 28.4787 
-13.72 -45.484 15.7549 
-0.780029 -3.6376 46.3158 
-1.85999 9.0625 55.0826 
-13.51 -27.4824 47.9419 
-5.85999 -47.314 5.472 
-16.7 -25.5225 50.5776 
-1.31995 -22.5254 -1.5468 
0.319946 -3.6119 15.6226 
-16.9301 -23.8813 52.1317 
-15.23 -24.0136 50.4422 
-9.02002 -22.1824 50.6687 
-0.410034 7.6949 20.7158 
-16.42 -27.0477 50.2749 
-11.95 -27.3451 47.6381 
-4.52002 -9.8832 52.7302 
0.170044 -3.5999 31.8396 
-0.0500488 -5.6471 22.0314 
1.44995 22.6645 27.4804 
-0.119995 -11.4797 34.5762 
-0.219971 -11.3232 36.3219 
-18.98 -30.3263 36.7708 
-0.319946 -13.2934 34.376 
-16.65 -39.3542 32.0324 
-5.03003 24.8323 40.6469 
1.68005 9.9012 11.8356 
1.75 45.2332 18.8861 
1.57996 24.7695 31.6138 
-0.0799561 -5.7 19.8274 
-7.48999 -39.7448 19.6079 
-6.67004 -47.452 11.826 
-15.25 -39.5632 30.0952 
0.140015 -3.4449 29.8765 
0.109985 -3.651 21.9529 
-15.29 -41.1214 28.1787 
-10.79 -36.9547 31.3847 
1.56006 31.8748 3.0635 
-18.3101 -43.096 21.8989 
-0.189941 -5.3812 13.6621 
-0.0500488 -7.7315 20.192 
-4.62 45.4235 0.937801 
-0.680054 -1.9792 46.0514 
-2.22998 -25.4987 9.7663 
1.18005 40.0173 0.456699 
-17.76 -39.2907 33.1901 
1.75 9.8464 5.6502 
1.59998 32.434 5.942 
1.70996 9.7062 3.4348 
1.27002 40.3522 5.7106 
-1.37 42.8659 3.7582 
-12.54 -26.4447 42.4436 
1.75 17.6304 1.7651 
-9.30005 -48.181 7.4778 
-2.42004 43.8694 0.386398 
1.66003 35.6032 1.3806 
1.53003 37.7835 1.4687 
1.95996 17.6368 -0.0830002 
1.77002 25.8477 -0.369499 
-13.02 8.7056 56.6864 
1.52002 31.7054 -0.322201 
1.43005 33.6579 -0.3064 
1.34998 35.6105 -0.2906 
1.26001 37.563 -0.274799 
-4.68005 -36.0639 -0.192501 
-4.73999 -35.9501 1.8691 
-5.79004 -45.678 0.258301 
-2.05005 -20.7635 45.1811 
-7.5 -47.469 -0.187401 
-13.22 -39.1962 23.9955 
-20.53 -31.8624 39.451 
-9.63 -47.605 -0.0261002 
-20.6899 -43.514 18.9811 
-17.1 -26.0122 51.8131 
1.25 19.963 13.5528 
-1.88 -19.536 5.7524 
-19.11 -33.7509 37.9523 
-9.81006 -47.447 1.6565 
-4.41003 -34.6954 9.0135 
-4.5 -37.5725 8.1099 
1.47998 26.9417 25.603 
-19.4 -35.81 37.185 
-1.81995 -19.7297 9.9201 
-18.9 -34.1514 35.7802 
-4.52002 -38.4173 11.9051 
-0.880005 46.0385 7.4716 
0.47998 38.7181 21.2811 
0.109985 -1.44 27.7321 
-0.140015 -3.415 27.7945 
-4.34998 -35.1188 13.411 
0.439941 40.678 21.46 
1.56006 28.8361 23.5056 
-15.63 -48.862 13.9562 
-2.13 -25.9691 7.3218 
1.06995 40.8604 2.2201 
1.51001 30.5305 21.8436 
-19.13 -40.0785 21.8895 
-2.19995 -28.4253 20.3197 
1.55005 28.6428 25.5364 
-6.68005 47.1296 5.8681 
-9.31006 9.9541 55.8278 
0.900024 40.7568 9.8517 
-0.400024 32.9967 26.799 
-2.14001 -25.0807 15.6834 
-24.42 -45.621 3.5878 
-10.73 4.6115 56.5144 
-2.12 -28.0211 26.2307 
1.20996 30.7711 23.704 
-31.53 -45.462 1.9628 
-0.640015 20.196 40.343 
1.20996 28.8651 32.2422 
0.199951 45.7423 9.453 
-17.42 -45.745 13.9262 
2.31006 36.6986 19.7136 
-22.72 -45.781 8.1947 
1.92004 14.3077 33.7778 
-4.18005 -14.8584 53.3366 
1.81995 12.6643 33.7683 
1.82996 9.1069 34.2462 
-2.10999 -27.9929 29.9462 
-9.19995 5.9874 55.9693 
-17.39 -23.2875 53.4944 
-2.67004 -16.4581 46.1913 
1.81006 7.8609 19.3929 
-8.66003 22.667 50.1106 
-5.01001 -22.4426 43.6866 
-17.36 -41.9434 24.4559 
-12.86 -21.7116 52.0675 
-13.6 -31.5948 35.6437 
-0.790039 16.2671 51.7973 
1.79004 11.1415 39.0159 
-4.34998 -33.8028 11.1535 
-2.64001 -18.0523 43.9275 
-3.94995 -2.4048 55.3152 
-0.22998 -1.609 0.1077 
-0.890015 18.3648 49.7188 
-1.56995 -18.3512 -0.617401 
-17.0601 -28.4494 43.6925 
-19.14 -41.8471 19.6857 
-15.64 -27.4358 49.5534 
-17.49 -35.833 33.5815 
-7.51001 -46.899 7.9133 
1.88 10.3833 36.1528 
-9.46997 -25.999 45.5958 
1.92004 10.6572 28.1039 
-2.56995 -14.6385 47.9223 
-11.51 -23.8297 49.6478 
-15.37 -37.2856 31.5378 
-11.33 -26.3229 45.9895 
-2.14001 -20.9035 47.3101 
-6.76001 -47.312 2.09 
-13.27 -33.7579 33.8006 
-1.43005 25.7305 40.8775 
-4.59998 -31.8492 0.00400162 
-9.38 -33.7233 33.7034 
-20.48 -45.122 12.1992 
2.06995 31.7752 24.878 
-9.08997 14.4063 55.8724 
1.51001 26.3769 15.8151 
-18.96 -35.7842 35.8052 
-29.98 -44.907 1.9654 
-4.5 -35.8171 11.4619 
-15.59 -27.271 45.9857 
-18.9399 -45.975 17.8546 
-15.3 -27.6454 44.094 
1.94995 8.1553 21.3792 
-5.03003 -21.4906 46.3613 
-15.16 -33.9634 33.78 
-2.38 -14.5001 45.8998 
-11 3.9146 57.5506 
-15.45 -27.3322 47.9573 
-9.41003 -23.6604 49.834 
-4.81006 -39.7931 9.7882 
1.84998 10.1856 30.122 
-2.56995 -13.5646 49.9621 
-2.54004 -16.6551 41.2547 
-1.80005 -18.1616 -2.0642 
-0.560059 8.2449 0.524899 
-16.78 -27.9662 45.389 
-4.54004 -37.9762 10.1102 
-7.16003 -45.54 11.6441 
1.77002 5.3686 36.8352 
-0.72998 24.3392 38.783 
-19.13 -32.2089 37.1738 
-17.29 -26.1001 53.1803 
-9.30005 -37.4815 25.7794 
-13.4 -27.7983 44.0177 
1.85999 11.9798 42.6618 
-2.37 -16.0458 29.8437 
1.46997 24.1561 15.921 
-1.64001 16.1448 55.2449 
-19.3101 -29.2139 41.4704 
-5.39001 -45.029 12.0628 
-2.85999 -19.8818 43.9163 
-6.42004 -36.1371 20.3909 
-3.07996 -3.7617 55.0585 
-2.08997 -27.4383 22.2521 
-19.5699 -29.8339 40.1029 
-7.30005 -7.3674 55.3813 
-17.11 -22.2197 55.0578 
-0.569946 18.9295 42.6273 
1.55005 26.2868 30.0763 
1.68994 3.3889 41.5393 
0.98999 22.3475 0.208698 
-16.64 -37.8811 32.0013 
-2.55005 -15.938 43.711 
-2.48999 -20.0583 21.65 
-5.87 -45.906 5.7913 
-7.53003 -29.6406 37.2511 
-2.43005 -16.2713 9.5592 
-6.05005 -8.4692 55.1667 
-0.689941 11.5758 51.7908 
1.26001 20.1865 15.7877 
1.88 5.3537 38.8692 
1.89001 17.869 35.6202 
-5.72998 -45.567 8.1354 
-2.69995 -20.002 39.7827 
-3.78003 45.679 17.2065 
-2.52002 -18.124 39.4455 
-13.47 -20.1619 54.1084 
-17.15 -39.6987 21.6672 
-2.56995 -18.032 41.6885 
1.51001 26.422 32.1756 
-0.939941 18.6501 43.5653 
-8.14001 -11.7509 55.7554 
-0.709961 1.8773 7.756 
-3.09998 26.1046 41.197 
-4.72998 -19.658 50.2606 
-13.47 -43.456 17.104 
1.90002 16.2118 30.1139 
-13.63 -39.7103 21.9167 
-2.31995 -27.7574 31.7642 
-2.56006 -15.9152 39.337 
1.41003 24.5239 33.8039 
-3.89001 -29.7145 35.4409 
-7.63 -37.0776 25.4792 
-11.11 -37.9736 28.1585 
-9.25 -35.7107 31.9707 
-11.0699 -37.2214 29.6408 
-7.07996 -35.824 29.8608 
-2.09998 -24.0302 36.0951 
-2.21997 -25.6885 31.7142 
-2.56006 45.8196 19.8011 
-2.51001 -17.3281 34.4199 
-2.44995 -15.5531 34.2576 
1.92004 3.4245 38.8202 
1.81995 9.2122 38.967 
1.90002 13.8527 39.7107 
-19.1 -43.773 18.2239 
-2.06995 -21.6256 12.2658 
2.08997 8.2651 38.4233 
2.06995 13.8527 38.3973 
2.06006 15.8916 38.1024 
1.68994 12.6984 28.8177 
-2.68005 -15.8185 47.7639 
1.91003 8.249 36.5321 
0.0799561 -3.6986 33.8789 
1.89001 12.4916 35.99 
2.03003 16.3186 35.8864 
1.80005 3.4353 36.7862 
-5.46997 47.81 3.4368 
0.75 41.9267 5.7369 
-6.15002 49.1279 0.464802 
1.31995 40.4957 3.5232 
0.630005 42.3657 1.6511 
-0.670044 15.2968 7.5333 
1.05005 23.9361 0.0810013 
0.699951 42.0934 0.5382 
1.96997 28.113 0.197498 
-1.97998 -25.9184 23.906 
-6.62 35.3436 37.0703 
-1.18005 46.0108 15.311 
-1.56995 -21.5432 0.1399 
0.0500488 -3.7222 13.9848 
-1.72998 -15.8511 3.9431 
0.819946 44.5983 16.005 
-0.98999 45.1432 16.799 
1.42004 35.4968 18.0333 
-17.54 -33.5462 35.8199 
-1.88 -19.655 2.0637 
1.54004 28.8872 17.9212 
-4.03003 -35.6201 -1.9609 
1.41003 32.443 20.0003 
-0.119995 -5.3897 12.2352 
-4.10999 -37.8183 -3.1485 
-4.69995 -38.1267 5.7138 
-0.0699463 -5.7016 15.678 
1.97998 13.1995 22.355 
-11.39 -35.9138 31.8832 
0.119995 -1.665 18.0825 
-4.34998 -34.6457 14.7182 
0.109985 -3.5439 23.7621 
0.0699463 -3.4965 18.2131 
-8.56006 44.7752 22.2785 
-1.73999 -15.644 1.7676 
-1.94995 46.0528 17.0611 
-17.24 -31.8189 37.7188 
-1.83997 -21.4337 7.7201 
-0.130005 -3.3174 6.2715 
-5.84998 -45.641 2.058 
-2.48999 -19.957 17.6604 
-4.56995 -37.6017 14.0127 
-4.68994 -34.1488 15.2503 
-9.25 -43.465 18.9422 
-0.650024 -0.115101 48.033 
-14.8101 -37.604 28.8334 
-5.65002 -41.4692 -3.8051 
-3.38 44.4903 5.3348 
-2.58997 -23.3502 19.7814 
-7.65002 -14.4677 52.6981 
-0.130005 -7.7585 31.4771 
-0.699951 -1.5182 25.7404 
-17.62 -31.5343 39.4844 
-2.07996 -21.5397 6.2101 
-0.219971 -3.1668 7.7774 
1.92004 18.0756 31.7358 
-0.0300293 -1.7395 25.8932 
-2.46997 -15.7666 23.6583 
2.01001 20.1289 31.6849 
-5.69995 -43.556 15.6586 
1.06995 30.4699 34.1012 
-0.849976 18.1839 45.6964 
1.53003 26.5737 34.2289 
0.22998 0.371201 27.9428 
-11.28 51.8977 1.711 
-4.69995 -35.9355 16.3667 
1.90002 18.1976 33.5959 
-2.47998 -15.874 25.2651 
-2.71997 -20.0061 23.8768 
-7 32.2515 38.0013 
-3.84998 -31.8054 39.271 
-3.06995 35.9386 34.2144 
-8.76001 22.5404 52.2527 
-1.18994 32.5962 34.2662 
1.94995 22.1645 35.6155 
1.16003 18.1203 15.8506 
-2 10.5449 55.2839 
-7.60999 -43.288 17.3516 
-0.849976 32.2283 35.8941 
-8.55005 43.2927 22.181 
-0.599976 1.884 48.0177 
-19.0699 -28.2065 38.0048 
-11.6 -14.517 54.4975 
-6.83997 -47.524 6.0955 
-2.14001 -21.2351 43.3109 
-7.10999 37.9922 27.659 
1.44995 28.1061 2.208 
-2.76001 -25.591 19.9716 
-9.60999 47.1581 17.89 
0.22998 12.1253 53.2151 
4.07996 42.669 15.5879 
-0.0799561 10.4278 53.3218 
-2.60999 -18.0159 21.7735 
-3.41003 46.5644 7.639 
-0.810059 -1.9405 47.991 
-3.68994 -31.691 33.6395 
-0.579956 3.9292 47.9712 
0.150024 0.4785 18.0897 
-4.94995 46.3204 9.8987 
-5.03003 18.2441 54.0525 
-1.76001 -23.9852 3.372 
-7.55005 -5.5353 55.288 
-3.84998 -26.1787 49.663 
-5.01001 -17.9735 52.1254 
-4.68994 34.8706 30.3314 
0.660034 10.0713 45.8471 
-18.97 -46.461 15.5774 
-10.04 47.8862 9.812 
-2.60999 32.3441 36.4452 
-19.38 -46.848 14.0542 
0.579956 2.1216 33.5997 
-0.52002 17.1934 47.4788 
-7.15002 18.2636 54.087 
0.27002 2.3868 29.8433 
-3.22998 46.8671 1.993 
-2.46997 -17.6202 23.7506 
-2.06006 35.3562 32.3379 
-11.5601 -25.8776 47.9787 
-9.82996 -1.6506 57.3766 
-9.17004 -25.347 51.4541 
-0.22998 -17.422 5.333 
-13.41 -13.9397 55.5186 
-5.26001 12.1858 57.3292 
1.97998 14.0084 13.9832 
-4.56006 -39.9046 11.8878 
-5.29004 -22.0661 48.1369 
-9.51001 21.9546 53.3167 
-3.80005 -25.3028 51.4549 
-3.76001 35.7591 35.6926 
-11.12 -17.865 54.1641 
-15.48 -31.8143 35.5216 
-7.70996 46.845 13.7195 
-5.03003 33.6754 37.668 
-1.87 21.5873 51.2525 
-1.91003 -19.9247 7.7037 
-7 45.2581 19.2552 
1.13 20.4832 11.6721 
-1.82996 12.3444 55.172 
-8.55005 42.2116 23.8815 
-14.65 47.176 3.842 
0.180054 16.5422 53.9645 
-11.96 -29.6471 43.886 
-5.52002 -44.909 14.9689 
-2.39001 -19.8696 31.9957 
-2.09998 -21.1943 39.7082 
1.92004 16.3703 25.9621 
-4.29004 44.5414 12.3504 
-6.55005 -23.7963 46.065 
-2.71997 -23.6921 25.9144 
-2.88 -25.7024 28.0072 
-0.0400391 -3.7644 2.2643 
-1.77002 -21.6114 3.9344 
-17.74 -47.457 -2.1913 
-6.40002 21.5606 52.873 
-1.53003 21.711 45.924 
0.160034 0.2738 33.6672 
-3.78003 23.5739 45.6396 
-7.80005 22.1898 52.1923 
0.0899658 21.5678 41.9236 
-0.880005 44.1496 18.2847 
-0.689941 4.1061 1.7861 
-3.64001 23.4702 47.7005 
-5.75 8.5452 57.4025 
-3.17004 18.551 52.2392 
-1.95996 -21.1975 37.8053 
0.25 6.4277 49.386 
0.77002 16.2814 11.5984 
-4.71997 46.2771 16.3226 
-18.25 -33.6292 37.09 
-1.79004 -19.6535 0.5779 
-11.4 11.4055 57.6899 
-4.55005 45.1037 7.8465 
-7.28003 6.1929 57.615 
-9.31995 -13.8719 54.3216 
-0.619995 2.1217 1.654 
-5.84998 10.3572 57.0203 
-4.77002 -12.1204 52.5506 
-18.91 -35.6363 34.4222 
1.56006 26.5071 21.9014 
-2.29004 -26.4324 11.7872 
-0.369995 33.1019 30.0269 
1.06995 28.2986 36.0927 
2.34998 44.2113 7.9611 
0.310059 17.9671 53.2174 
0.150024 -1.5132 19.7032 
-12.8199 -31.7187 41.8883 
-10.1801 -28.8498 43.1869 
-3 -15.7898 50.1955 
-13.03 -31.2168 42.9064 
-0.51001 32.6557 32.3617 
-2.90002 22.0927 47.3049 
-17.75 -28.4003 41.6972 
-1.80005 -17.6377 1.7859 
-5.41003 46.7906 11.7351 
1.94995 18.3792 29.8055 
-0.709961 -3.8083 44.0237 
-1.52002 21.7188 47.4168 
-8.71997 -19.9784 52.4702 
2.01001 18.4493 27.7873 
0.469971 19.7678 47.6707 
0.0699463 0.5485 31.5525 
-2.70996 -19.9734 41.7277 
-5.66003 -45.612 9.9635 
-2.56006 41.2565 20.7343 
-2.93005 34.0786 36.3607 
-10.1 -48.767 2.8564 
-3.64001 22.6153 51.7475 
-4.84998 -24.5588 38.6548 
-0.530029 4.1435 6.2024 
-7.26001 -18.3131 52.2774 
-3.76001 23.8484 43.7564 
-1.75 21.8282 49.2425 
-7.46997 20.2917 53.7589 
-9.45996 29.9599 41.2751 
-5.23999 46.8528 13.8176 
-0.77002 6.0872 52.0959 
-5.43005 -36.8546 26.2924 
0.22998 -4.8447 26.6945 
-1.88 -15.5263 -1.7255 
-9.20996 32.0733 40.0798 
-9.58997 -31.7465 35.6121 
3.35999 46.1778 16.7323 
-8.90002 32.3903 38.3843 
-6.93005 46.5334 4.146 
-2 -13.9075 -1.6143 
-9.32996 33.916 38.3028 
-0.650024 0.0519981 37.8218 
-6.97998 33.8341 37.7393 
0.869995 16.3404 9.7289 
-4.80005 44.772 18.5902 
0.310059 45.706 6.1554 
-7.35999 33.2952 39.5624 
-11.37 -15.9465 54.5693 
-6.03003 -45.527 -1.1702 
-2.46997 -19.9097 29.8976 
-3.30005 46.2334 15.2244 
-2.34998 -17.6059 30.2161 
-5.06006 34.4868 36.6955 
-11.3199 -30.1235 40.1629 
-3.79004 46.8588 12.2 
-2.73999 -17.164 26.2302 
-6.20996 -40.7521 18.9742 
-7.08997 -24.115 48.0874 
-2.72998 -23.6041 28.1719 
-15.4399 -30.8107 37.1801 
-7.32996 46.248 15.7657 
-2.62 -19.8976 27.8761 
-2.48999 -19.6851 26.2303 
1.85999 11.8922 40.2641 
-2.59998 -15.7482 27.7735 
-0.339966 9.5439 50.602 
0.900024 18.4428 9.988 
-5.65002 46.2914 8.3948 
-2.63 -17.6339 -1.5363 
1.34998 26.1264 9.2149 
-11.28 -22.0751 55.2739 
1.26001 25.76 7.5853 
-2.60999 -17.5647 32.3621 
-2.69995 46.199 10.1243 
2.31995 44.1478 11.8471 
1.33997 24.3224 5.675 
1.62 29.9146 6.3951 
-5.56995 46.6381 5.9206 
1.58997 29.9881 3.596 
0.400024 45.9072 3.9455 
2.40002 44.2441 3.7763 
-10.98 20.018 53.8276 
-1.76001 -11.7688 -0.051899 
-9.25 -25.9858 43.9501 
-3.57996 -29.7875 -2.1356 
0.199951 2.2528 3.9703 
-14.9399 -45.911 13.8078 
-1.63 -13.6947 1.704 
-0.160034 -9.9316 32.3674 
-3.67004 -27.8889 -1.9656 
-1.42004 -9.7478 2.077 
-0.130005 -10.0263 34.3454 
0.219971 2.5168 6.0667 
-1.31006 -11.5764 16.1286 
-5.20996 26.1189 41.5038 
1.91003 12.4237 10.0913 
-0.130005 -1.485 7.7471 
-1.65002 -13.8662 3.7295 
-1.16003 45.97 12.1652 
-1.89001 -13.672 -0.312599 
-1.56995 -11.9061 5.8181 
4.05005 43.5159 10.1136 
0.810059 12.2785 11.747 
-1.69995 -13.8854 5.783 
-5.70996 -43.93 -0.130402 
-4.13 -41.7334 5.4804 
-2.52002 -13.0153 7.8747 
0.0400391 0.3848 11.6222 
-1.76001 -15.5756 7.9861 
-1.57996 -11.881 3.8536 
4.05005 39.4786 13.4193 
1.43994 24.3453 19.5941 
2.12 44.1591 15.6146 
-13.29 -35.3275 33.0127 
-5.08997 21.9435 51.883 
-0.0200195 -1.8115 12.1403 
-9.20996 -21.7346 55.0802 
-1.31006 28.0632 39.1866 
-3.55005 -31.6102 7.8349 
-11.0601 10.0389 55.6521 
-7.59998 47.0736 9.9235 
-7.25 4.2562 55.8513 
0.0600586 -1.8383 14.148 
-1.93005 -19.8208 11.7766 
1.39001 42.6914 18.5878 
1.34998 40.3935 18.159 
1.30005 20.428 17.7336 
2.18994 38.6424 19.5695 
1.41003 18.375 17.6849 
-2.03003 -21.385 15.9262 
-0.400024 8.7399 2.8071 
-1.92004 -17.7082 11.9088 
-15.54 46.9544 5.766 
-9.41003 -15.7447 54.2016 
-2.35999 -11.2655 7.9729 
-9.34998 -11.8766 54.5094 
-2.01001 -25.9364 29.84 
-1.03003 42.8416 20.1702 
-2.18994 -23.451 9.7504 
1.38 18.5592 19.7219 
-2.02002 -21.6089 9.784 
2.19995 38.0162 21.9261 
1.22998 18.0058 23.9348 
-4.15002 -37.5885 0.0824013 
-11.54 -31.5636 35.6164 
0.280029 24.232 39.4765 
0.219971 2.3001 14.0613 
-4.22998 -39.3258 1.8826 
-7.62 46.29 19.2487 
-6.96997 3.8136 54.8373 
-1.62 -13.5203 14.0985 
2.78003 42.2334 19.6762 
-1.14001 30.1815 37.6425 
1.53003 22.3248 19.922 
-4.42004 -33.2057 41.1625 
-4.09998 -41.7909 11.8088 
-4.83997 -37.8171 3.7923 
-3.93994 -43.476 11.9709 
0.829956 36.3209 21.8217 
-9.78003 -33.2351 36.6836 
-4.08997 -37.5708 1.9185 
0.280029 0.535099 19.8577 
-2.43005 -13.8262 40.4313 
-2.59998 42.4864 20.492 
-0.77002 38.5708 22.0155 
-4.06995 -39.2061 -0.541901 
-4.06995 -39.6926 14.0236 
1.46997 24.383 17.8824 
-7.5 18.0255 55.8217 
0.540039 34.3092 23.8137 
-0.199951 -7.4343 30.1361 
-0.640015 -1.4477 19.7452 
-3.40002 4.2828 54.2614 
0.199951 0.555401 3.9841 
2.13 32.398 21.944 
-0.0899658 -2.024 5.6336 
-3.30005 33.547 37.3215 
-0.599976 45.075 9.7811 
-6.78003 40.8904 22.5325 
-2.80005 -19.6075 45.8361 
-5.65002 -45.271 13.6317 
1.88 31.4625 27.7556 
1.40002 20.5049 25.3757 
-3.25 19.4555 53.2996 
-0.579956 0.3792 21.7675 
-16.4 54.294 1.7025 
-4.88 -37.7885 15.7315 
-4.71997 38.5197 22.5377 
-0.51001 3.3316 43.8038 
-3.44995 -31.8997 37.3735 
-2.69995 36.6349 24.3639 
-0.310059 -10.319 39.9249 
-8.97998 15.5165 57.5887 
2.19995 30.3089 27.899 
-0.359985 5.5584 24.2949 
-10.26 -4.2985 56.8956 
0.0300293 -1.5514 23.9365 
-11.59 33.7385 38.9194 
-5.77002 -45.653 4.1494 
-2.52002 -19.8691 19.8967 
-5.56995 49.5301 0.457199 
-0.689941 7.5648 8.2131 
-17.51 -27.7342 37.8979 
-1.81995 -17.8693 5.91 
-6.81995 42.7961 22.4359 
-21.23 -45.791 7.8001 
1.97998 31.5591 29.9172 
1.39001 20.5081 27.6105 
2.16003 20.4759 19.9254 
-4.82996 -35.733 17.861 
-18.97 -46.936 6.1578 
0.300049 2.4583 25.9841 
0.189941 0.450901 26.1014 
1.82996 18.2796 3.7166 
-6.88 -38.0087 18.3514 
-5.23999 -27.2325 39.3672 
-3.63 -27.8601 35.4503 
2.19995 26.195 28.0024 
1.39001 16.5783 25.6544 
-2.41003 -10.2658 5.9805 
-5.76001 -1.9108 55.1164 
-12.6 -8.0548 56.1568 
-23.84 -45.518 11.8885 
2.69995 36.2852 7.9506 
-12.9 -28.0373 38.115 
-5.26001 2.1581 54.4559 
1.91003 10.3933 37.6333 
-5.06006 24.5618 41.833 
-7.68994 43.3561 23.194 
-4.56006 44.9565 3.3416 
-7.12 5.6771 54.6991 
-1.91003 -19.9993 3.8868 
-17.1801 -33.8885 34.2369 
0.0200195 -0.161499 43.8716 
-2.62 -17.8333 -0.255901 
-1.06006 2.0851 51.8831 
-0.109985 -1.8684 51.8934 
-0.5 0.250702 17.7172 
0.150024 4.0245 47.8912 
-11.36 -29.62 36.7216 
-3.80005 -35.5801 14.0189 
-0.699951 -3.9961 38.1576 
-19.21 -31.753 36.2744 
-7.63 -27.3644 39.6376 
0.569946 6.1256 37.7402 
-22.1899 -46.234 9.0112 
2.34998 32.3308 23.7782 
-8.96997 14.1545 57.605 
-1.06995 -3.8866 7.9415 
-7.01001 -43.895 -2.2148 
-13.3199 -18.0047 55.5178 
1.97998 26.2396 8.0538 
0.660034 18.1238 45.9867 
-5.62 -22.2832 53.8625 
-7.40002 -37.508 21.8219 
-7.09998 -25.333 50.1057 
0.0100098 0.439602 5.7936 
1.18994 22.378 7.6222 
0.0300293 0.2099 45.8999 
-8.39001 -46.396 8.8468 
-0.52002 2.0062 19.6416 
-4.64001 -34.1345 -0.1665 
-1.80005 -11.9527 50.0078 
0.619995 16.1324 49.8675 
2.42004 32.1457 2.0117 
0.959961 18.0831 14.2517 
-1.5 10.115 53.8306 
-5.38 -43.734 5.9203 
-38.66 -43.168 6.0852 
-11.1801 -15.8367 55.6509 
-5.48999 -25.4647 43.7362 
-2.89001 -27.7626 13.6875 
-1.85999 -17.6379 16.0472 
1.88 21.8436 7.8001 
0.26001 4.3744 49.6395 
-9.51001 -25.6957 47.8749 
-0.0699463 -3.8088 38.0427 
-9.46997 -10.0975 54.6063 
0.199951 2.1006 47.7469 
-21.24 -44.328 15.9611 
-13.25 -25.8463 48.2003 
1.93005 17.9059 7.9646 
-15.2 -39.4964 27.4887 
-1.01001 34.7057 26.0506 
-5.56995 -9.7827 53.8829 
0.810059 12.234 5.7593 
-3.34998 14.2573 55.6702 
-11.27 9.9294 57.5558 
-7.58997 3.9921 57.6522 
-17.51 -41.4808 22.142 
2.70996 38.2324 9.8209 
2.68005 34.407 13.8817 
-12.8199 47.7172 8.6522 
-0.469971 2.0708 25.9105 
-12.79 -36.4167 30.2175 
-1.96997 -27.7447 24.1271 
0.0699463 2.1049 49.8661 
-4.47998 36.9226 24.5896 
-18.9 -43.889 15.7687 
-11.3 -28.107 38.1939 
-15.63 -40.4638 18.6211 
-1.20996 34.3481 28.0436 
0.810059 11.9102 47.8834 
-1.80005 -17.7385 31.9981 
1.31995 40.7335 8.3008 
-2.17004 -25.634 18.0317 
-0.660034 13.7616 7.4018 
2.19995 26.1357 25.9976 
1.31006 16.1883 31.7753 
0.910034 16.1946 5.7786 
-4.94995 -26.0348 51.4524 
-13.87 -23.8061 51.7115 
2.05005 20.1113 11.7482 
-10.83 7.9428 57.7948 
-1.75 -15.578 23.8526 
-2.66003 -23.7952 21.7576 
-5.09998 -41.8605 5.8291 
0.780029 43.6216 1.98 
-3.96997 -38.9549 5.8209 
0.23999 12.2791 51.7689 
-9.43005 -8.3076 54.7922 
-5.29004 0.0830002 55.2349 
-2.65002 -21.6557 30.0007 
1.08997 14.3343 13.9924 
-0.849976 26.2331 38.4925 
-4.26001 -44.764 11.8724 
-4.84998 -39.9413 3.9476 
2.32996 32.2525 8.0986 
-2.81006 -27.7697 15.9613 
4.09998 37.5299 11.7239 
1.40002 22.6784 21.6803 
-0.900024 29.5344 38.9241 
2.43005 42.1665 17.7009 
-7.39001 -25.9798 41.9008 
-9.17004 -21.6795 51.9163 
-1.57996 -5.787 51.9309 
-10.99 -1.6968 56.4765 
-1.90002 -21.5952 25.9362 
0.77002 8.4605 19.6776 
2.09998 22.1764 13.7656 
1.92004 10.268 21.4507 
-9.31995 12.0225 57.5628 
0.709961 8.3395 37.8591 
-0.390015 3.681 41.763 
-3.47998 -31.737 23.8039 
-7.31995 -37.6538 19.9452 
-7.54004 -25.6639 46.1546 
-0.0100098 0.452202 9.6126 
-7.18005 -26.1753 40.0228 
-5.31995 12.4149 55.8475 
-4.93994 -29.941 41.2994 
-9.5 -9.847 55.5858 
2.31006 23.9546 -0.0194016 
-5.71997 -5.3957 55.1958 
-2.54004 -21.8176 16.1276 
-8.54004 -46.492 6.0323 
-13.51 47.4219 3.7147 
-0.51001 2.3772 21.8355 
-3.48999 10.3927 55.4477 
-0.599976 -1.7549 30.0082 
-14.0601 -26.5883 45.7389 
1.93005 18.4359 5.4436 
-1.37 24.1661 39.8583 
-16.99 -47.367 12.5335 
1.12 12.6388 17.902 
2.72998 41.9868 7.829 
-7.33997 -25.5625 48.051 
-0.73999 -3.99 32.1049 
-3.30005 20.4935 49.6978 
-0.640015 0.0774994 25.6847 
-1.79004 -15.4995 21.9306 
-15.27 -38.4297 23.7416 
-3.14001 44.2957 2.1097 
-2.68005 -23.7333 23.8147 
-5.34998 -41.6877 -0.216999 
-4.06995 -39.6215 7.7834 
-3.62 -33.9863 9.8675 
-0.699951 -2.005 37.8667 
-19.34 -30.2003 38.069 
-11.16 -8.1318 55.8171 
-6.92004 -43.73 5.2621 
-1.05005 -9.7651 34.1145 
-5.43005 -43.736 12.0049 
-3.98999 -42.138 10.0351 
-0.650024 -3.8175 40.0318 
-3.72998 -35.9113 11.992 
0.209961 16.0495 51.8888 
-5.33997 20.1715 53.6212 
-13.15 -37.7735 31.8094 
-13.6801 -18.5498 54.3823 
1.94995 26.1953 6.0379 
0.920044 10.3234 17.7776 
-2.67004 -21.9437 9.8769 
-11.91 -35.7475 30.5539 
-1.63 44.4142 21.4 
-2.17004 -28.5152 27.5975 
-7.05005 30.0319 39.3057 
-8.71997 45.9429 14.7047 
1.05005 12.3842 25.9056 
-0.180054 -4.4704 52.1955 
-1.94995 -17.5277 21.8059 
-11.37 18.4607 54.727 
-7.77002 -4.5351 54.828 
-11.23 -25.0542 50.3195 
-9.27002 -1.7421 56.2027 
-9.18005 8.236 57.7789 
-1.44995 0.222401 53.358 
1.07996 15.9711 39.737 
-12.09 18.1057 55.4318 
-7.62 -3.3818 55.3011 
-1.68005 -19.9202 -1.359 
-17.89 -33.0384 38.9929 
-10.99 12.3163 55.8794 
-7.07996 44.3496 21.6067 
-7.46997 6.1236 56.1959 
-1.58997 -4.0335 51.9271 
-3.12 -29.7726 12.0946 
-2.42004 -18.0144 16.6283 
-0.810059 -6.0873 42.1444 
-15.3199 -27.9245 41.9028 
-5.06995 -41.9031 3.8362 
-1.78003 -15.7441 25.9748 
2.33997 38.8447 0.1973 
0.930054 18.0962 5.8422 
-3.27002 -31.6518 27.9175 
-11.02 -41.6937 19.5505 
-1.65002 46.1501 9.4106 
-5.53003 48.1585 2.0767 
-2.71997 -25.7329 23.7784 
-0.800049 -1.7643 12.0428 
2.62 36.4052 15.7651 
2.04004 20.1266 29.6977 
-3.38 -23.7576 37.8627 
-2.52002 -17.5711 28.2928 
-3.43994 46.5651 5.6929 
-11.26 -27.5157 45.552 
-9.10999 4.4231 57.4121 
0.76001 11.9397 45.8969 
-1.76001 -17.853 33.9942 
-0.900024 6.3032 0.248299 
1.89001 16.6251 21.7117 
-3.33997 -19.7706 50.1267 
1.31995 22.3503 9.8236 
-0.0300293 0.0428009 51.6693 
-1.48999 -11.7158 48.0453 
-3.22998 31.852 37.7229 
1.01001 12.3313 13.5957 
-14.22 -39.5676 29.6532 
-18.85 -26.9708 39.4348 
-1.29004 26.1784 39.5622 
-2.59998 -21.8846 27.8003 
1.07996 14.3396 15.9167 
-0.0100098 -1.5293 4.0096 
0.47998 6.5001 15.9885 
-4.75 -35.3955 33.3719 
0.959961 30.1307 36.0536 
-13.1801 -14.977 57.4536 
-11.16 -47.532 -2.4349 
2.04004 28.2002 10.0109 
-13.49 -35.9915 31.7768 
-15.47 -21.9957 53.5812 
-2.64001 -20.5533 14.1215 
-0.839966 -7.8876 43.7946 
-3.47998 -31.9416 13.6999 
-0.780029 -3.8649 10.1634 
-1.54004 8.1635 53.9382 
-7.88 -28.6853 36.6039 
0.630005 6.3898 25.8939 
0.0500488 -1.5566 21.8916 
-9.38 -3.8145 55.8842 
-2.82996 -19.8524 -0.0831985 
-9.42004 27.7913 41.8539 
0.290039 6.1736 2.0874 
-1.19995 18.1232 53.569 
-7.78003 -47.205 -1.3882 
-1.27002 -5.8293 0.0402985 
-14.61 -41.5653 26.1804 
-1.76001 -15.8644 27.9837 
2.53003 34.3469 15.6556 
2.14001 26.3354 18.016 
-4.91003 40.4106 22.0384 
2.06995 22.0777 33.7708 
-5.28003 2.151 55.3756 
-13.36 -27.8883 39.8518 
-23.23 -45.574 10.6878 
2.5 36.4098 17.7215 
-4.97998 7.4709 54.3925 
-5.18994 -23.9691 45.6105 
-7.25 -45.753 9.6928 
-1.12 -11.8808 39.8785 
-13.53 -38.1442 28.2309 
0.47998 4.0169 31.7328 
-1.55005 -13.8171 45.9671 
-5.34998 -35.4725 35.8011 
1.94995 12.2086 31.6177 
-3.51001 -15.8469 51.8914 
-2.56995 -18.0127 5.8875 
-0.810059 -5.6789 36.0219 
-3.09998 -29.8475 17.8062 
-15.41 -28.0062 40.0102 
-3.51001 -3.9478 53.6267 
-16.09 -29.0343 43.9299 
-0.839966 0.0315018 1.7734 
-12.14 -30.9857 41.004 
0.369995 2.1847 31.6553 
-3.39001 -1.738 53.7402 
1.97998 11.0346 32.267 
-3.17004 -13.7534 51.8201 
-17.2 -29.5036 41.762 
-1.81995 -15.8619 10.0099 
1.88 16.4237 3.7068 
2.5 38.3579 2.0554 
0.22998 6.0579 43.918 
0.630005 18.2014 41.6885 
-0.51001 5.9277 50.1856 
-3.31995 -29.7221 32.0033 
0.569946 8.1698 3.5736 
-2.12 -19.711 49.4088 
-1.14001 20.2777 51.7996 
0.410034 6.2639 13.7987 
-1.41003 35.6602 25.9838 
1.08997 44.3485 10.1143 
-2.84998 -18.0326 47.9935 
-0.859985 -3.3418 20.0451 
-2.72998 -21.9299 26.0671 
1.17004 14.517 17.9692 
-1.79004 -29.4138 30.8035 
-7.31995 15.5999 55.9669 
-11.46 -9.8961 55.9897 
-9.33997 18.4871 56.0298 
2.06006 20.1646 23.968 
2.70996 36.1455 9.9678 
-7.17004 9.6379 54.5879 
1.27002 16.2666 19.7177 
-7.55005 -7.665 54.4114 
-11.24 -29.6163 42.0061 
-9 2.6027 57.4153 
-0.939941 -5.6906 24.0726 
2.04004 20.5021 3.364 
-4.27002 -37.1387 -2.1509 
-5.30005 -21.814 50.0649 
1.54004 27.7668 8.1661 
-11.4399 -19.9141 55.407 
-13.2 -23.8549 50.0234 
2.03003 19.9552 9.703 
-9.12 -34.1656 32.0056 
0.630005 10.2035 43.9381 
-5.32996 6.0807 55.8065 
2.23999 24.2769 15.8074 
-7.14001 -43.555 -3.7925 
-2.91003 30.191 38.0736 
1.73999 9.8694 8.0083 
-5.13 24.1157 43.5065 
-4.77002 -31.6219 43.8015 
-7.92004 -38.7586 21.3631 
-2.38 -8.4536 2.8135 
-1.21997 -9.6403 26.0599 
-1.17004 -7.6647 14.0149 
-2.52002 -19.8574 35.6503 
-3.19995 40.4449 21.4881 
0.859985 34.586 22.0432 
-5.25 -19.9445 52.0052 
-9.66003 -27.3925 43.6277 
1.91003 18.2709 23.8554 
-7.47998 -36.167 27.9733 
1.08997 14.2579 41.7939 
1.21997 16.1425 37.4866 
2.34998 26.351 16.1825 
0.420044 6.1958 5.8811 
-2.77002 -20.0691 4.1888 
-7.31995 -35.6106 31.6561 
-5.56995 -35.4394 27.8545 
2.08997 22.1694 31.8642 
-11.12 -45.572 14.0477 
-1.63 6.1841 53.8264 
-6.88 -21.763 50.1948 
1.75 13.7454 5.3304 
-1 -7.5793 21.891 
-0.77002 -0.0423012 11.8471 
-14.41 -30.5592 34.656 
-8.15002 46.7231 11.4318 
-15.4 -31.8166 34.1644 
-0.839966 18.3296 47.7876 
-2.16003 -17.9252 49.7854 
1.90002 13.1096 8.0724 
-5.04004 25.9797 40.1449 
-2.21997 -34.7236 29.9336 
1.06995 12.2272 31.7838 
-4.02002 -22.8192 51.67 
-15.39 -23.5606 51.6696 
-13.4399 -39.5979 19.7836 
-3.13 22.0833 45.5929 
1.02002 14.0215 35.5512 
-7.43994 -25.8675 43.9114 
-0.609985 2.176 24.0486 
-9.26001 -46.334 11.5565 
0.0400391 -1.6264 35.7472 
-0.900024 -5.7028 12.1358 
-15.79 -41.7 21.6899 
0.650024 8.3779 13.8186 
-20.88 -33.5736 36.1564 
0.969971 18.1796 39.7901 
-15.95 -21.7004 54.9627 
-0.75 -7.9867 42.1101 
-2.54004 -19.7994 15.4533 
-0.73999 0.4282 43.7719 
-9.12 -43.548 15.9417 
-0.589966 13.733 52.0208 
-4.53003 45.6461 -0.432999 
0.47998 6.3269 17.845 
-4.59998 -35.3979 31.616 
-13.39 -30.0003 36.2564 
-3.54004 -21.79 49.9336 
2.53003 34.1485 10.0126 
-15.09 -25.718 49.5365 
-13.4 -41.7574 17.7764 
-1.93994 -33.8209 31.4429 
0.819946 10.1207 33.9823 
-3.06995 -29.8062 13.9504 
-11.46 -38.222 21.8046 
-9.57996 -27.3763 41.6955 
-13.21 -25.4255 49.5313 
1.97998 17.8546 9.9196 
-21.03 -31.5374 37.451 
-5.59998 -20.0388 53.1878 
2.28003 26.1819 29.9306 
-6.20996 28.1248 38.808 
1.37 16.3066 27.6438 
1.45996 18.3468 21.8125 
2.69995 38.2271 15.8429 
0.900024 10.36 25.9514 
-7.35999 -13.9131 54.1284 
-0.0300293 -6.9184 28.7336 
-0.650024 -1.64 22.1327 
-11.5 -37.6265 23.9957 
2.45996 32.0726 9.9217 
-15.87 -33.6098 32.693 
-0.579956 0.0512009 32.0411 
-27.74 -45.467 4.4291 
-1.06006 -7.6577 18.1231 
-3.60999 -31.8025 -0.141602 
-2.80005 -25.8421 16.0387 
-10.77 28.5418 40.2811 
-6.18994 35.3521 30.9934 
-5.55005 4.3587 55.5309 
-8.20996 -34.3371 29.9084 
1.31995 17.9491 35.8397 
-1.38 -11.41 18.1649 
-9.46997 -35.7598 29.9599 
0.719971 8.3654 15.9548 
-1.81006 -21.8664 29.983 
-2.56995 -21.6104 21.7537 
0.839966 14.3164 5.743 
-2.83997 -25.8839 21.6707 
-11.46 -39.471 21.526 
-11.27 -36.1447 28.5147 
-1.69995 -13.6146 47.8689 
-2.22998 -28.2071 34.1899 
-6.76001 30.5154 38.483 
-1.13 -11.8298 35.9692 
2.16003 22.2125 19.8188 
-2.57996 -15.7981 0.0155983 
2.33997 30.4327 17.7369 
0.339966 33.9161 26.0883 
2.69995 40.3157 13.881 
1.95996 26.3559 3.9297 
-3.89001 2.0914 55.3633 
2.53003 34.2956 7.9553 
-5.51001 16.1991 55.6128 
2.12 30.037 31.96 
-9.56006 -31.6051 37.767 
-0.0899658 -2.062 43.6588 
-3.5 -27.3876 37.5251 
-5.56006 -27.5941 37.4299 
-1.52002 -11.7187 10.1208 
4.17004 42.306 13.979 
0.939941 10.2268 35.9279 
-7.09998 28.2173 39.6008 
2.10999 30.242 0.413898 
-9.55005 -35.9521 27.3985 
-5.07996 -35.3712 29.5761 
1.30005 18.0135 33.9062 
-2.60999 -7.818 50.8286 
1.96997 20.1269 33.8064 
0.410034 4.3674 25.832 
-2.45996 -14.1836 3.9673 
0.689941 8.2336 29.7404 
-1.15002 -5.9825 4.0846 
-0.670044 1.616 37.8054 
-5.22998 -33.897 29.7669 
-6.79004 -44.024 3.5109 
-1.17004 -9.8748 31.9541 
0.0200195 35.7234 24.902 
-7.20996 14.118 56.0301 
-1.30005 44.3504 6.0372 
-3.16003 -21.9751 41.9455 
1.06006 14.1346 33.6084 
-3.10999 35.7094 31.9673 
-0.800049 4.2472 51.7624 
2.64001 41.9599 5.7805 
0.890015 10.3925 23.8724 
2.10999 28.1802 33.8809 
-9.25 43.7417 24.0108 
0.0500488 2.2743 11.7973 
-1.91003 -19.7622 43.8285 
-3.81006 -31.646 -1.8461 
1.73999 13.665 3.4172 
-0.949951 -7.5592 28.0537 
-3.80005 -35.7381 17.5242 
-0.719971 -3.7832 42.1022 
-1.35999 -11.8674 32.036 
-14.3 -38.6504 20.2205 
0.560059 10.24 3.7047 
-3.46997 11.6154 54.5431 
0.859985 8.3036 31.7449 
-14.01 -33.6883 32.4249 
-9.48999 12.4915 56.0581 
0.97998 10.5223 21.6247 
-0.51001 0.1847 34.041 
-10.58 -46.16 -3.1913 
-13.42 -38.2389 22.1878 
-0.619995 1.8725 9.9139 
-3.25 26.1275 39.795 
0.48999 18.1378 47.8838 
-2.85999 -27.7938 30.012 
-19.55 -47.294 15.9433 
0.160034 2.1367 35.6829 
-2.63 -23.88 13.8232 
-5.01001 -32.0532 31.845 
-18.12 -46.268 9.7947 
-1.60999 21.8742 43.535 
-11.75 -39.7681 18.4584 
-2.93005 -25.7951 33.8497 
-0.0400391 -1.8437 45.9546 
1.45996 24.1171 3.9202 
-17.13 -35.6865 32.4386 
-4.31006 -46.081 13.3771 
-5.10999 -39.9549 -1.7233 
-13.58 -17.0819 57.3508 
1.94995 26.2053 10.1567 
0.0400391 0.202702 47.7941 
1.26001 22.1541 5.7479 
-11.47 -20.1521 52.6982 
-0.150024 -6.0008 52.1567 
1.5 27.9724 4.3738 
-2.01001 -19.5359 18.1096 
-1.12 -5.908 2.2234 
-3.65002 -23.7001 47.6648 
-5.15002 -42.0215 7.8329 
0.140015 4.0846 3.795 
-9.28003 -45.91 -0.302299 
-0.48999 2.1047 27.5387 
-7.39001 12.2859 56.3049 
-0.369995 4.1135 24.1343 
0.140015 -5.2809 24.3547 
-1.64001 -15.8395 31.9149 
-4.16003 -39.0882 -2.4725 
-3.39001 -31.4797 19.8469 
-0.430054 4.0562 29.076 
1.39001 28.3874 27.6683 
-1.10999 20.5046 44.0673 
-14.63 -20.605 54.0095 
-3.03003 -29.6795 23.7178 
-0.670044 30.8231 36.4835 
-18.03 -37.6458 33.0257 
1.15002 22.0636 1.8084 
2.12 18.0199 11.7932 
1.13 15.9846 35.4609 
-7.45996 -29.8686 36.1194 
2.21997 26.3059 22.119 
-5.38 -1.6024 54.4735 
-2.55005 -10.3688 0.0749016 
2.31995 32.39 17.8644 
-5.39001 -27.9063 36.0019 
-1.67004 -11.8187 7.9718 
1.94995 24.1464 35.7711 
-0.579956 -2.0681 31.84 
-3.73999 -33.6773 7.9277 
-1.68994 -17.9554 35.8372 
0.189941 -1.674 29.5739 
0.920044 12.0948 43.7427 
-8.68994 -26.5191 40.1049 
-3.58997 -29.8152 1.9336 
1.88 19.5894 -0.0672989 
-1.03003 -5.591 19.8311 
-2.35999 43.5874 7.8049 
-15.14 -37.7889 30.4449 
-2.79004 -23.6461 30.1616 
-5.46997 -41.8443 -2.0926 
-0.27002 -6.1214 39.9442 
-1.80005 -15.6123 16.0615 
-0.790039 -7.7834 40.1036 
-3.45996 -32.0241 9.9304 
2.10999 28.3122 2.1774 
-9.28003 7.8956 55.9417 
-0.209961 -13.7038 32.5301 
0.73999 8.1059 33.833 
-3.90002 -37.749 10.1678 
0.369995 10.1475 0.406101 
-14.74 47.0311 11.1212 
0.800049 15.9407 45.7859 
-5.07996 -16.2238 52.4618 
1.78003 22.8218 1.7983 
-2.53003 -12.2665 -0.0466995 
-9.59998 -19.7262 53.7018 
0.829956 16.2221 0.254799 
2.23999 26.2544 33.7819 
-7.28003 10.4566 57.6053 
1.46997 16.4287 23.9964 
-5.75 33.4756 33.7665 
-4.88 5.5291 54.2389 
-18.67 -45.028 19.4665 
0.77002 9.9828 41.7941 
1.19995 44.5914 13.945 
-0.790039 36.4796 22.1244 
2.21997 24.1102 29.7032 
-4.80005 22.8835 44.0511 
-7.06995 38.8243 24.0089 
-0.97998 -3.8791 0.0245018 
-7.17004 19.4764 54.9594 
-11.03 -13.8275 55.6356 
-3.93005 -35.6821 3.9774 
-1.79004 -4.0595 53.3879 
0.349976 6.03 3.9772 
-2.76001 -19.8937 1.9723 
-0.630005 4.0417 4.122 
-4.98999 -24.1507 43.8762 
-23.58 -44.909 0.500401 
-5.65002 17.8558 55.0584 
2.91003 36.1663 12.0595 
-4.77002 -37.9594 -0.1385 
-3.34998 -29.7996 3.8414 
-0.959961 -5.599 17.8792 
2.12 30.2847 26.1906 
-1.62 -15.9523 44.0005 
-0.0600586 -5.7774 35.9518 
-4.78003 36.9197 26.2977 
-9.28003 4.0131 56.357 
-11.4 -27.8641 39.8305 
-15.47 -39.8778 20.0254 
-0.949951 34.1594 34.0422 
-3.97998 -35.8901 1.9274 
-1.94995 -15.9182 -0.3661 
-15.15 -43.829 16.2126 
-7.21997 -45.599 3.5763 
-0.640015 -3.678 26.0799 
-1.12 -9.769 46.033 
1.46997 20.0149 31.8905 
-1.25 20.1721 49.5612 
-5.78003 -23.6985 52.9816 
-1.51001 4.1261 53.6938 
-3.44995 35.9545 30.0172 
-4.83997 -39.9235 7.8538 
0.77002 16.2791 3.8882 
-1.77002 -13.8305 9.8952 
-1.85999 -15.9111 49.8362 
1.13 16.4428 13.4851 
-7.46997 10.2932 56.3299 
-10.25 -28.9054 45.6558 
-3.29004 -25.8 -0.2304 
-10.6899 29.4612 41.7458 
-3.40002 -31.7745 17.8812 
-1.16003 -9.6859 27.8713 
1.05005 20.205 1.7437 
-5.04004 -39.8181 -0.148102 
0.199951 4.2125 43.7889 
-1.32996 -13.7857 41.9866 
-1.93994 -19.8127 33.9374 
-4 -33.6153 -2.0485 
-2.27002 -12.7486 52.4636 
-2.60999 -21.9595 12.044 
0.920044 20.1129 7.6395 
2.37 40.0597 1.9373 
-8.73999 19.4718 55.4024 
1.97998 18.4276 19.9951 
-2.84998 -27.5591 25.9289 
4.12 41.9318 9.8388 
0.670044 10.1338 7.8283 
-9.58997 -37.2398 29.3741 
2.64001 36.2712 2.1282 
0.939941 10.3282 19.7936 
-9.48999 -33.4465 39.7998 
-4.53003 -31.2496 -1.7361 
-4.01001 -37.7944 13.7004 
2.56006 44.0874 5.8804 
-1.25 16.2059 53.719 
0.329956 3.9691 37.954 
-1.55005 -13.8786 31.6756 
-1.25 -9.8587 47.9698 
-4.89001 -39.7848 1.9473 
-0.689941 6.092 3.8256 
1.98999 16.2558 10.0414 
0.959961 18.2904 1.8267 
2.68994 38.1397 3.9262 
-3.47998 -33.8149 11.9363 
-0.560059 -1.977 36.0003 
1.41003 26.3963 1.6779 
2.15002 22.1738 29.7963 
-3.15002 -23.7011 -0.3186 
0.140015 2.1654 43.9057 
-0.150024 -6.9816 26.5545 
-0.920044 -2.0419 0.0957985 
-2.60999 -21.8906 35.8476 
1.20996 14.4439 23.7833 
-2.58997 21.8419 49.8161 
-11.13 -11.8709 55.9782 
-15.58 -41.764 17.9621 
-18.54 -43.93 20.1318 
0.22998 19.8726 49.6796 
-5.30005 37.0169 27.7783 
0.310059 7.9606 0.332401 
-1.25 20.255 47.5537 
1.31006 24.0222 1.8765 
-1.62 -13.6003 17.9767 
0.430054 4.078 35.8934 
2.04004 20.6475 15.7311 
-9.31006 47.5232 3.9279 
0.540039 9.8583 47.7627 
-13.01 -23.2403 52.9098 
2.17004 19.7745 13.8956 
-0.780029 -0.0810013 0.122501 
-3.52002 -6.0081 53.7733 
-11.8101 -31.7705 39.5434 
0.189941 1.9876 41.916 
-3.20996 -23.7575 -1.8438 
-1.03003 -9.8607 39.9727 
-4.90002 16.3944 54.3968 
-0.369995 1.7806 41.7916 
-5.39001 -33.6135 33.4592 
-15.04 -29.257 42.0284 
-0.75 -0.0861015 3.8615 
-11.49 -17.8165 55.5695 
-2.55005 -21.8023 23.9109 
0.77002 14.2054 3.7392 
-7.43005 -1.8781 55.6786 
-1.55005 -11.7969 2.0247 
-4.85999 -13.8631 52.4551 
0.0999756 6.2525 51.8432 
0.469971 44.1363 19.3711 
-0.810059 -5.9348 46.1413 
-9.16003 6.2566 57.6503 
-1.51001 2.1785 53.6121 
-2.12 -22.0847 33.7726 
0.630005 8.2315 11.6761 
-20.62 -41.7518 20.5728 
-9.59998 -37.259 27.7972 
2.71997 36.1772 3.9796 
0.599976 14.1202 0.310501 
-1.48999 -11.6384 13.9251 
-11.55 -34.721 33.4158 
0.119995 -1.5692 16.1056 
2.08997 26.329 13.949 
0.819946 16.1923 43.6074 
1.96997 22.0026 0.365002 
-2.54004 -11.7381 2.0605 
2.14001 24.3953 23.9228 
-5.48999 -17.7358 53.4882 
-2.94995 -21.8505 -0.1269 
0.869995 14.0606 43.8224 
-6.10999 -34.9271 37.3985 
-7.15002 -36.2142 21.8859 
-13.86 -31.534 39.0191 
-2.32996 -8.2576 0.428902 
1.90002 10.5924 33.9835 
-3.69995 -14.3806 53.3565 
-5.56006 23.9126 45.931 
-1.06995 44.1747 1.7515 
1.41003 20.0384 35.8912 
-8.97998 -25.7536 49.9255 
-17.17 -43.872 19.4148 
1.60999 32.5339 1.9679 
-3.94995 -35.7711 -0.182701 
-1.93005 -19.8486 37.8101 
-3.88 -33.8654 1.7947 
-1.14001 -9.5032 20.0704 
-0.98999 -9.9196 44.0307 
-5.20996 46.9825 3.85 
0.660034 18.1451 49.7336 
-5.53003 10.4083 55.8507 
-0.640015 1.8753 0.178101 
0.0400391 -3.7753 35.6542 
-0.420044 3.895 36.0962 
-3.43994 -31.5891 30.0495 
4.25 43.3911 12.0757 
1.01001 12.0587 37.8931 
-3.09998 0.284199 52.6741 
-11.64 -47.227 -0.4855 
-3.43994 -27.7789 -0.1525 
-9.46997 -27.3809 45.6518 
2.06995 18.0814 13.8607 
-0.150024 -9.7401 36.3056 
-11.55 -38.0038 26.0685 
-11.36 -33.7709 33.8502 
0.849976 22.3348 37.9565 
-11.66 -48.949 11.9272 
2.23999 26.2969 24.2989 
1.32996 16.2197 29.6651 
2.01001 20.576 25.8939 
0.359985 4.5762 17.8998 
0.27002 5.898 47.6311 
-18 -45.974 7.2926 
-1.5 22.3159 41.6036 
-5.16003 -31.8058 33.8158 
0.160034 2.4138 16.1933 
-9.77002 -46.804 12.9424 
-2.90002 -23.8514 4.1141 
-4.78003 -36.2538 -2.0902 
-0.949951 -3.7448 2.141 
0.829956 16.1808 1.8987 
-3.42004 -35.138 27.921 
-2.03003 -23.6442 21.8334 
-0.0999756 -4.1039 43.6621 
-1.73999 -17.7623 29.9965 
4.01001 44.1608 16.2675 
0.569946 12.2177 49.7764 
-3.22998 -29.8104 7.6683 
-0.859985 -6.0334 38.126 
-3.31995 -0.446499 55.155 
2.09998 28.1604 3.9064 
1.29004 28.6183 29.7854 
-1.20996 20.538 45.8252 
-2.44995 -13.3157 9.4278 
-5.06006 -29.9599 34.0575 
-3.09998 -29.7692 25.9049 
-0.699951 3.853 49.7401 
-3.17004 36.1463 26.0973 
-3.38 -31.433 31.807 
-3.25 -25.8518 -1.8329 
-9.43005 -29.9568 36.3605 
2.22998 30.1 5.8265 
2.31995 30.3197 3.863 
-9.17004 -36.3445 24.2543 
-2.71997 1.6275 52.7163 
-9.06995 28.2524 39.8768 
0.26001 6.1174 0.562698 
-1.10999 18.5725 51.7832 
-7.60999 -45.304 15.1809 
-3.42004 16.086 55.5893 
-1 -3.9707 6.1346 
-2.75 -17.8878 1.8561 
0.119995 0.451698 13.6962 
0.680054 8.085 39.7512 
0.75 10.344 11.7557 
-11.08 -8.8471 57.6098 
-2.29004 -30.2462 24.1719 
-7.53003 16.3771 57.1231 
-7.17004 -20.1177 52.2811 
-7.62 -37.4858 23.543 
-5.32996 -21.6306 52.0646 
-15.86 -42.4294 23.7872 
-2.41003 18.3464 54.8964 
-1.12 -5.9085 5.9647 
-3.22998 -27.7753 3.8439 
-0.280029 -6.3145 7.3764 
-17.17 -30.1064 36.3891 
-9.45996 -31.8012 34.4025 
-0.719971 -1.658 3.7491 
-3.5 -27.9297 33.8096 
-0.199951 -8.2304 18.0382 
-0.880005 -1.7069 7.7969 
-1.38 -7.9673 4.0562 
1.88 14.2435 11.8634 
-9.43994 -47.677 11.3612 
-3.07996 -23.8464 1.7178 
-6.87 16.2998 54.7817 
-17.64 -45.949 6.5538 
-0.910034 22.461 40.1531 
-1.42004 -11.3951 22.2456 
-13.61 -38.2452 26.005 
-3.15002 -25.7524 2.0374 
1.12 20.1789 3.6801 
2.55005 40.0965 5.8349 
-1.76001 -17.7883 27.9669 
-0.189941 -3.9293 45.8965 
1.93994 16.2467 7.7745 
0.939941 18.0376 7.697 
2.68005 38.1088 5.6678 
-0.949951 0.163101 51.8832 
-7.43005 -23.5985 49.6012 
-3.09998 22.4748 43.6668 
0.949951 14.1345 37.5501 
0.650024 8.3068 17.7785 
-3.07996 -29.5571 21.8394 
2.68005 42.0058 3.7774 
1.38 24.3185 9.8208 
-0.0400391 -1.7778 48.0038 
-0.599976 -1.8789 40.0361 
-3.69995 -33.729 15.8371 
-5.40002 -37.632 17.8604 
2.69995 40.1452 11.835 
-0.869995 -5.5415 26.0577 
2.02002 20.3715 5.649 
-9.38 -15.393 55.4632 
-2.14001 -25.7153 20.1883 
2.38 34.1844 2.0871 
1.20996 18.1321 37.7188 
-0.969971 -5.85 10.103 
-2.48999 -18.084 14.4517 
-0.75 -5.9453 44.218 
-3.20996 -29.9013 9.7703 
-0.130005 -5.8648 38.3955 
-1.45996 -15.937 41.9927 
0.459961 28.1504 37.7796 
-0.26001 -6.9797 24.4467 
-0.839966 -1.8781 2.0553 
1.37 28.4579 34.1079 
-0.849976 20.5702 41.7039 
-3.07996 -29.8063 29.9816 
-2.82996 -31.6515 35.0092 
-0.439941 4.2661 45.8251 
-2.38 37.1685 21.968 
0.569946 26.2356 37.7715 
-0.959961 -5.6106 15.9045 
1.96997 30.0936 34.0968 
1.01001 12.1819 35.8282 
-9.10999 -35.8557 26.2837 
2.21997 30.1818 2.1127 
-0.530029 1.982 46.1608 
-9.10999 -45.642 13.5864 
-4.85999 -33.7066 21.8594 
0.719971 14.193 1.8747 
-7.18994 -2.6076 57.3745 
-1.55005 -11.7987 12.1433 
0.680054 20.1062 39.6778 
-3.51001 44.4123 21.4021 
-3.01001 -23.8586 35.768 
-5.12 -41.7971 11.7602 
-0.0300293 -5.7272 30.1534 
-1.57996 -15.7542 33.64 
-4.16003 -39.5371 3.9939 
-0.76001 -3.9068 30.0911 
-3.81006 -35.6025 6.0694 
-9.06995 -47.341 5.5701 
-2.77002 -23.9188 11.9167 
0.380005 2.4729 23.8183 
-9.38 -39.772 19.7248 
0.27002 -5.212 28.8454 
-1.68005 -15.7835 35.8727 
1.04004 10.3042 37.9549 
-3.06006 -17.9462 50.0177 
1.92004 14.7476 21.9019 
-1.31995 -7.8656 6.0875 
-2.06006 45.9287 1.7952 
1.95996 19.8879 7.5794 
-0.829956 -5.8373 27.9072 
0.630005 18.1212 43.7263 
-2.43994 -12.1007 3.7221 
-4.79004 -39.7889 14.0791 
-5.23999 -41.6932 13.8416 
-3.68005 -23.6873 45.9706 
-0.550049 0.0640984 15.9942 
-0.640015 3.8021 7.9784 
-3.5 23.3671 49.7554 
-5.09998 -24.1219 47.8914 
-5.45996 8.2695 55.551 
-3.68994 -33.7005 17.8533 
-18.97 -37.3013 33.9093 
0.0600586 8.145 51.7006 
-0.579956 6.074 2.3359 
1.93994 16.3277 24.0292 
-6.07996 14.4512 56.985 
-3.87 -19.6511 51.5238 
-0.959961 -7.6954 35.9361 
-2.68994 -19.9687 6.1901 
-5.23999 -35.3676 25.7637 
-13.17 -37.6633 29.9828 
-1.20996 -11.8345 42.0839 
-20.6801 -28.2652 38.6721 
0.709961 16.166 47.9332 
-5.31006 -15.7557 53.5225 
0.579956 10.2526 5.7436 
-3.43005 12.1872 55.2998 
2.25 28.1598 31.8819 
0.25 2.655 9.9192 
0.349976 -1.522 33.8541 
0.939941 11.8193 40.0097 
-1.73999 -17.9428 40.0421 
-1.77002 -7.9082 51.8303 
-9.42004 -37.8894 21.6309 
0 0.0592995 38.0412 
-5.58997 -25.6064 39.9916 
1.95996 26.325 35.8036 
0.420044 6.0947 11.7657 
-0.349976 35.9005 20.3259 
0.550049 44.6516 12.0556 
-13.79 -40.144 28.5448 
1.17004 12.5423 23.7678 
-10.99 -22.3263 50.7873 
0 -4.4399 49.9353 
-1.93005 -17.6015 23.8485 
-0.75 -7.9462 37.8717 
-3.65002 -32.023 3.9671 
-3.18005 -27.7899 31.9466 
-2.71997 -22.3697 14.113 
-9.52002 -17.6144 55.241 
1.83997 24.3277 1.7277 
-1.14001 -11.9396 37.8878 
-16.54 -41.3512 25.0128 
-3.25 6.0693 54.1101 
-3.59998 -29.7811 -0.259201 
-0.900024 -5.7208 14.1861 
-1.76001 -17.9625 37.9382 
0.219971 -1.5218 31.8205 
0.910034 12.19 41.8117 
0.25 4.2426 5.8125 
2.48999 34.1588 3.6794 
-3.75 -23.5651 42.0019 
-5.19995 -41.9049 9.6089 
-8.96997 17.6055 56.9383 
2.09998 20.5052 22.0693 
-1.44995 -13.7777 40.0026 
0.560059 4.0356 30.0089 
-5.45996 34.3315 32.2592 
0.949951 10.1389 39.9039 
-5.97998 -41.5721 18.1033 
-2.82996 44.1468 20.2488 
-2.76001 -23.7651 33.7805 
1.44995 24.3023 7.7338 
-0.0600586 -2.0991 49.7215 
-0.51001 0.191299 19.7435 
-0.75 -1.9265 42.0879 
-3.56006 -33.7735 13.7951 
-0.670044 1.8335 3.8764 
-0.0699463 -4.2733 40.3105 
-3.06006 -29.6772 27.8818 
-9.33997 -13.2978 55.4774 
1.98999 24.0007 10.0188 
0.449951 10.14 1.872 
-10.99 24.8654 43.5558 
0.839966 42.7115 7.845 
-15.03 -39.7171 25.9292 
1.06006 13.8328 39.8089 
-7.06995 -35.6796 25.7897 
-1.95996 -10.3275 51.8295 
0.180054 -0.0424995 39.9674 
-5.52002 -25.1863 46.0717 
1.92004 13.7301 1.7336 
-1.06006 -7.6242 25.8803 
0.52002 6.1427 30.0341 
-0.72998 -3.6704 27.9939 
-7.17004 -45.825 5.852 
-13.9399 -28.442 36.5938 
2.62 36.2296 5.8397 
-0.439941 4.1794 9.9545 
-3.18005 24.6002 40.4208 
-5.17004 -24.1949 41.933 
2.18005 26.275 31.8213 
-5.18005 28.0936 39.7449 
1.23999 16.2741 21.9959 
-9.33997 18.798 54.0642 
2.08997 20.3254 18.0838 
-1.35999 -13.9358 37.9327 
0.22998 4.0087 39.8746 
-1.89001 -19.985 35.9589 
-7.71997 -23.6095 53.367 
-2.20996 -22.327 49.0433 
-3.90002 -33.7235 -0.228298 
-1.07996 -9.7335 29.8394 
-0.560059 -0.0105019 40.0041 
0.76001 12.0141 9.652 
-3.02002 -21.9577 43.9849 
1.21997 14.2482 31.6133 
-2.89001 22.9003 41.966 
-11.23 -43.93 15.8451 
2.06995 24.2751 33.9549 
0.140015 -5.8507 31.5401 
-1.56995 -15.9777 40.0767 
-4.68994 9.8378 54.1815 
-0.709961 1.9727 5.8595 
-7.57996 -11.9405 54.2779 
-0.839966 -3.764 12.2269 
-0.76001 -5.7202 34.0085 
-2.47998 -17.9893 8.0725 
1.91003 14.2816 26.2199 
-13.26 -45.538 14.2243 
1.41003 22.2535 17.9741 
2.09998 29.6611 37.1061 
-5.25 -35.7075 19.6863 
2.15002 26.8873 37.0951 
-7.41003 8.5251 57.5035 
0.439941 6.398 9.8395 
2.01001 20.2661 27.7866 
0.310059 4.4117 16.004 
0.329956 22.1402 39.6683 
0.709961 7.9932 35.7517 
0.709961 32.3293 29.9348 
-6.90002 26.2788 40.2589 
0.0899658 0.476601 21.7709 
-0.719971 -5.9025 32.0463 
-2.55005 -17.8438 9.9445 
-7.01001 -47.532 3.5833 
-1.98999 -21.0908 41.7804 
-8.76001 0.393902 57.2478 
-11.27 -23.6332 51.7171 
2.09998 30.1864 24.212 
0.939941 10.2485 31.8431 
-7.01001 -34.0612 32.3144 
-5.22998 -25.9805 37.9703 
-2.10999 -6.3594 53.8661 
-2.73999 -18.1103 3.8126 
0.170044 0.4324 15.9347 
1.96997 13.7215 0.238098 
-1.14001 -7.4773 16.1583 
-3.56006 -31.6985 1.9765 
0.680054 6.605 19.7773 
-1.35999 14.1025 53.8844 
-0.609985 -1.9811 27.8489 
-3.70996 -33.8809 3.9609 
-2.59998 -21.7202 32.0542 
0.920044 14.207 11.8909 
-6.52002 -42.1604 -1.1024 
-3.32996 27.9672 38.6521 
-10.79 -46.68 2.2127 
2.06006 22.3272 11.8865 
