ply
format ascii 1.0
comment Created by CloudCompare v2.11 alpha (Anoia)
comment Created 9/2/19 6:41 PM
obj_info Generated by CloudCompare!
element vertex 1465
property float x
property float y
property float z
end_header
-0.00472998 -0.019658 0.0502606 
-0.01347 -0.043456 0.017104 
0.00190002 0.0162118 0.0301139 
-0.01363 -0.0397103 0.0219167 
-0.00231995 -0.0277574 0.0317642 
-0.00256006 -0.0159152 0.039337 
0.00141003 0.0245239 0.0338039 
-0.00389001 -0.0297145 0.0354409 
-0.00763 -0.0370776 0.0254792 
-0.01111 -0.0379736 0.0281585 
-0.00925 -0.0357107 0.0319707 
-0.0110699 -0.0372214 0.0296408 
-0.00707996 -0.035824 0.0298608 
-0.00209998 -0.0240302 0.0360951 
-0.00221997 -0.0256885 0.0317142 
-0.00256006 0.0458196 0.0198011 
-0.00251001 -0.0173281 0.0344199 
-0.00244995 -0.0155531 0.0342576 
0.00192004 0.0034245 0.0388202 
0.00181995 0.0092122 0.038967 
0.00190002 0.0138527 0.0397107 
-0.0191 -0.043773 0.0182239 
-0.00206995 -0.0216256 0.0122658 
0.00208997 0.0082651 0.0384233 
0.00206995 0.0138527 0.0383973 
0.00206006 0.0158916 0.0381024 
0.00168994 0.0126984 0.0288177 
-0.00268005 -0.0158185 0.0477639 
0.00191003 0.008249 0.0365321 
7.99561e-05 -0.0036986 0.0338789 
0.00189001 0.0124916 0.03599 
0.00203003 0.0163186 0.0358864 
0.00180005 0.0034353 0.0367862 
-0.00546997 0.04781 0.0034368 
0.00075 0.0419267 0.0057369 
-0.00615002 0.0491279 0.000464802 
0.00131995 0.0404957 0.0035232 
0.000630005 0.0423657 0.0016511 
-0.000670044 0.0152968 0.0075333 
0.00105005 0.0239361 8.10013e-05 
0.000699951 0.0420934 0.0005382 
0.00196997 0.028113 0.000197498 
-0.00197998 -0.0259184 0.023906 
-0.00662 0.0353436 0.0370703 
-0.00118005 0.0460108 0.015311 
-0.00156995 -0.0215432 0.0001399 
5.00488e-05 -0.0037222 0.0139848 
-0.00172998 -0.0158511 0.0039431 
0.000819946 0.0445983 0.016005 
-0.00098999 0.0451432 0.016799 
0.00142004 0.0354968 0.0180333 
-0.01754 -0.0335462 0.0358199 
-0.00188 -0.019655 0.0020637 
0.00154004 0.0288872 0.0179212 
-0.00403003 -0.0356201 -0.0019609 
0.00141003 0.032443 0.0200003 
-0.000119995 -0.0053897 0.0122352 
-0.00410999 -0.0378183 -0.0031485 
-0.00469995 -0.0381267 0.0057138 
-6.99463e-05 -0.0057016 0.015678 
0.00197998 0.0131995 0.022355 
-0.01139 -0.0359138 0.0318832 
0.000119995 -0.001665 0.0180825 
-0.00434998 -0.0346457 0.0147182 
0.000109985 -0.0035439 0.0237621 
6.99463e-05 -0.0034965 0.0182131 
-0.00856006 0.0447752 0.0222785 
-0.00173999 -0.015644 0.0017676 
-0.00194995 0.0460528 0.0170611 
-0.01724 -0.0318189 0.0377188 
-0.00183997 -0.0214337 0.0077201 
-0.000130005 -0.0033174 0.0062715 
-0.00584998 -0.045641 0.002058 
-0.00248999 -0.019957 0.0176604 
-0.00456995 -0.0376017 0.0140127 
-0.00468994 -0.0341488 0.0152503 
-0.00925 -0.043465 0.0189422 
-0.000650024 -0.000115101 0.048033 
-0.0148101 -0.037604 0.0288334 
-0.00565002 -0.0414692 -0.0038051 
-0.00338 0.0444903 0.0053348 
-0.00258997 -0.0233502 0.0197814 
-0.00765002 -0.0144677 0.0526981 
-0.000130005 -0.0077585 0.0314771 
-0.000699951 -0.0015182 0.0257404 
-0.01762 -0.0315343 0.0394844 
-0.00207996 -0.0215397 0.0062101 
-0.000219971 -0.0031668 0.0077774 
0.00192004 0.0180756 0.0317358 
-3.00293e-05 -0.0017395 0.0258932 
-0.00246997 -0.0157666 0.0236583 
0.00201001 0.0201289 0.0316849 
-0.00569995 -0.043556 0.0156586 
0.00106995 0.0304699 0.0341012 
-0.000849976 0.0181839 0.0456964 
0.00153003 0.0265737 0.0342289 
0.00022998 0.000371201 0.0279428 
-0.01128 0.0518977 0.001711 
-0.00469995 -0.0359355 0.0163667 
0.00190002 0.0181976 0.0335959 
-0.00247998 -0.015874 0.0252651 
-0.00271997 -0.0200061 0.0238768 
-0.007 0.0322515 0.0380013 
-0.00384998 -0.0318054 0.039271 
-0.00306995 0.0359386 0.0342144 
-0.00876001 0.0225404 0.0522527 
-0.00118994 0.0325962 0.0342662 
0.00194995 0.0221645 0.0356155 
0.00116003 0.0181203 0.0158506 
-0.002 0.0105449 0.0552839 
-0.00760999 -0.043288 0.0173516 
-0.000849976 0.0322283 0.0358941 
-0.00855005 0.0432927 0.022181 
-0.000599976 0.001884 0.0480177 
-0.0190699 -0.0282065 0.0380048 
-0.0116 -0.014517 0.0544975 
-0.00683997 -0.047524 0.0060955 
-0.00214001 -0.0212351 0.0433109 
-0.00710999 0.0379922 0.027659 
0.00144995 0.0281061 0.002208 
-0.00276001 -0.025591 0.0199716 
-0.00960999 0.0471581 0.01789 
0.00022998 0.0121253 0.0532151 
0.00407996 0.042669 0.0155879 
-7.99561e-05 0.0104278 0.0533218 
-0.00260999 -0.0180159 0.0217735 
-0.00341003 0.0465644 0.007639 
-0.000810059 -0.0019405 0.047991 
-0.00368994 -0.031691 0.0336395 
-0.000579956 0.0039292 0.0479712 
0.000150024 0.0004785 0.0180897 
-0.00494995 0.0463204 0.0098987 
-0.00503003 0.0182441 0.0540525 
-0.00176001 -0.0239852 0.003372 
-0.00755005 -0.0055353 0.055288 
-0.00384998 -0.0261787 0.049663 
-0.00501001 -0.0179735 0.0521254 
-0.00468994 0.0348706 0.0303314 
0.000660034 0.0100713 0.0458471 
-0.01897 -0.046461 0.0155774 
-0.01004 0.0478862 0.009812 
-0.00260999 0.0323441 0.0364452 
-0.01938 -0.046848 0.0140542 
0.000579956 0.0021216 0.0335997 
-0.00052002 0.0171934 0.0474788 
-0.00715002 0.0182636 0.054087 
0.00027002 0.0023868 0.0298433 
-0.00322998 0.0468671 0.001993 
-0.00246997 -0.0176202 0.0237506 
-0.00206006 0.0353562 0.0323379 
-0.0115601 -0.0258776 0.0479787 
-0.00982996 -0.0016506 0.0573766 
-0.00917004 -0.025347 0.0514541 
-0.00022998 -0.017422 0.005333 
-0.01341 -0.0139397 0.0555186 
-0.00526001 0.0121858 0.0573292 
0.00197998 0.0140084 0.0139832 
-0.00456006 -0.0399046 0.0118878 
-0.00529004 -0.0220661 0.0481369 
-0.00951001 0.0219546 0.0533167 
-0.00380005 -0.0253028 0.0514549 
-0.00376001 0.0357591 0.0356926 
-0.01112 -0.017865 0.0541641 
-0.01548 -0.0318143 0.0355216 
-0.00770996 0.046845 0.0137195 
-0.00503003 0.0336754 0.037668 
-0.00187 0.0215873 0.0512525 
-0.00191003 -0.0199247 0.0077037 
-0.007 0.0452581 0.0192552 
0.00113 0.0204832 0.0116721 
-0.00182996 0.0123444 0.055172 
-0.00855005 0.0422116 0.0238815 
-0.01465 0.047176 0.003842 
0.000180054 0.0165422 0.0539645 
-0.01196 -0.0296471 0.043886 
-0.00552002 -0.044909 0.0149689 
-0.00239001 -0.0198696 0.0319957 
-0.00209998 -0.0211943 0.0397082 
0.00192004 0.0163703 0.0259621 
-0.00429004 0.0445414 0.0123504 
-0.00655005 -0.0237963 0.046065 
-0.00271997 -0.0236921 0.0259144 
-0.00288 -0.0257024 0.0280072 
-4.00391e-05 -0.0037644 0.0022643 
-0.00177002 -0.0216114 0.0039344 
-0.01774 -0.047457 -0.0021913 
-0.00640002 0.0215606 0.052873 
-0.00153003 0.021711 0.045924 
0.000160034 0.0002738 0.0336672 
-0.00378003 0.0235739 0.0456396 
-0.00780005 0.0221898 0.0521923 
8.99658e-05 0.0215678 0.0419236 
-0.000880005 0.0441496 0.0182847 
-0.000689941 0.0041061 0.0017861 
-0.00364001 0.0234702 0.0477005 
-0.00575 0.0085452 0.0574025 
-0.00317004 0.018551 0.0522392 
-0.00195996 -0.0211975 0.0378053 
0.00025 0.0064277 0.049386 
0.00077002 0.0162814 0.0115984 
-0.00471997 0.0462771 0.0163226 
-0.01825 -0.0336292 0.03709 
-0.00179004 -0.0196535 0.0005779 
-0.0114 0.0114055 0.0576899 
-0.00455005 0.0451037 0.0078465 
-0.00728003 0.0061929 0.057615 
-0.00931995 -0.0138719 0.0543216 
-0.000619995 0.0021217 0.001654 
-0.00584998 0.0103572 0.0570203 
-0.00477002 -0.0121204 0.0525506 
-0.01891 -0.0356363 0.0344222 
0.00156006 0.0265071 0.0219014 
-0.00229004 -0.0264324 0.0117872 
-0.000369995 0.0331019 0.0300269 
0.00106995 0.0282986 0.0360927 
0.00234998 0.0442113 0.0079611 
0.000310059 0.0179671 0.0532174 
0.000150024 -0.0015132 0.0197032 
-0.0128199 -0.0317187 0.0418883 
-0.0101801 -0.0288498 0.0431869 
-0.003 -0.0157898 0.0501955 
-0.01303 -0.0312168 0.0429064 
-0.00051001 0.0326557 0.0323617 
-0.00290002 0.0220927 0.0473049 
-0.01775 -0.0284003 0.0416972 
-0.00180005 -0.0176377 0.0017859 
-0.00541003 0.0467906 0.0117351 
0.00194995 0.0183792 0.0298055 
-0.000709961 -0.0038083 0.0440237 
-0.00152002 0.0217188 0.0474168 
-0.00871997 -0.0199784 0.0524702 
0.00201001 0.0184493 0.0277873 
0.000469971 0.0197678 0.0476707 
6.99463e-05 0.0005485 0.0315525 
-0.00270996 -0.0199734 0.0417277 
-0.00566003 -0.045612 0.0099635 
-0.00256006 0.0412565 0.0207343 
-0.00293005 0.0340786 0.0363607 
-0.0101 -0.048767 0.0028564 
-0.00364001 0.0226153 0.0517475 
-0.00484998 -0.0245588 0.0386548 
-0.000530029 0.0041435 0.0062024 
-0.00726001 -0.0183131 0.0522774 
-0.00376001 0.0238484 0.0437564 
-0.00175 0.0218282 0.0492425 
-0.00746997 0.0202917 0.0537589 
-0.00945996 0.0299599 0.0412751 
-0.00523999 0.0468528 0.0138176 
-0.00077002 0.0060872 0.0520959 
-0.00543005 -0.0368546 0.0262924 
0.00022998 -0.0048447 0.0266945 
-0.00188 -0.0155263 -0.0017255 
-0.00920996 0.0320733 0.0400798 
-0.00958997 -0.0317465 0.0356121 
0.00335999 0.0461778 0.0167323 
-0.00890002 0.0323903 0.0383843 
-0.00693005 0.0465334 0.004146 
-0.002 -0.0139075 -0.0016143 
-0.00932996 0.033916 0.0383028 
-0.000650024 5.19981e-05 0.0378218 
-0.00697998 0.0338341 0.0377393 
0.000869995 0.0163404 0.0097289 
-0.00480005 0.044772 0.0185902 
0.000310059 0.045706 0.0061554 
-0.00735999 0.0332952 0.0395624 
-0.01137 -0.0159465 0.0545693 
-0.00603003 -0.045527 -0.0011702 
-0.00246997 -0.0199097 0.0298976 
-0.00330005 0.0462334 0.0152244 
-0.00234998 -0.0176059 0.0302161 
-0.00506006 0.0344868 0.0366955 
-0.0113199 -0.0301235 0.0401629 
-0.00379004 0.0468588 0.0122 
-0.00273999 -0.017164 0.0262302 
-0.00620996 -0.0407521 0.0189742 
-0.00708997 -0.024115 0.0480874 
-0.00272998 -0.0236041 0.0281719 
-0.0154399 -0.0308107 0.0371801 
-0.00732996 0.046248 0.0157657 
-0.00262 -0.0198976 0.0278761 
-0.00248999 -0.0196851 0.0262303 
0.00185999 0.0118922 0.0402641 
-0.00259998 -0.0157482 0.0277735 
-0.000339966 0.0095439 0.050602 
0.000900024 0.0184428 0.009988 
-0.00565002 0.0462914 0.0083948 
-0.00263 -0.0176339 -0.0015363 
0.00134998 0.0261264 0.0092149 
-0.01128 -0.0220751 0.0552739 
0.00126001 0.02576 0.0075853 
-0.00260999 -0.0175647 0.0323621 
-0.00269995 0.046199 0.0101243 
0.00231995 0.0441478 0.0118471 
0.00133997 0.0243224 0.005675 
0.00162 0.0299146 0.0063951 
-0.00556995 0.0466381 0.0059206 
0.00158997 0.0299881 0.003596 
0.000400024 0.0459072 0.0039455 
0.00240002 0.0442441 0.0037763 
-0.01098 0.020018 0.0538276 
-0.00176001 -0.0117688 -5.1899e-05 
-0.00925 -0.0259858 0.0439501 
-0.00357996 -0.0297875 -0.0021356 
0.000199951 0.0022528 0.0039703 
-0.0149399 -0.045911 0.0138078 
-0.00163 -0.0136947 0.001704 
-0.000160034 -0.0099316 0.0323674 
-0.00367004 -0.0278889 -0.0019656 
-0.00142004 -0.0097478 0.002077 
-0.000130005 -0.0100263 0.0343454 
0.000219971 0.0025168 0.0060667 
-0.00131006 -0.0115764 0.0161286 
-0.00520996 0.0261189 0.0415038 
0.00191003 0.0124237 0.0100913 
-0.000130005 -0.001485 0.0077471 
-0.00165002 -0.0138662 0.0037295 
-0.00116003 0.04597 0.0121652 
-0.00189001 -0.013672 -0.000312599 
-0.00156995 -0.0119061 0.0058181 
0.00405005 0.0435159 0.0101136 
0.000810059 0.0122785 0.011747 
-0.00169995 -0.0138854 0.005783 
-0.00570996 -0.04393 -0.000130402 
-0.00413 -0.0417334 0.0054804 
-0.00252002 -0.0130153 0.0078747 
4.00391e-05 0.0003848 0.0116222 
-0.00176001 -0.0155756 0.0079861 
-0.00157996 -0.011881 0.0038536 
0.00405005 0.0394786 0.0134193 
0.00143994 0.0243453 0.0195941 
0.00212 0.0441591 0.0156146 
-0.01329 -0.0353275 0.0330127 
-0.00508997 0.0219435 0.051883 
-2.00195e-05 -0.0018115 0.0121403 
-0.00920996 -0.0217346 0.0550802 
-0.00131006 0.0280632 0.0391866 
-0.00355005 -0.0316102 0.0078349 
-0.0110601 0.0100389 0.0556521 
-0.00759998 0.0470736 0.0099235 
-0.00725 0.0042562 0.0558513 
6.00586e-05 -0.0018383 0.014148 
-0.00193005 -0.0198208 0.0117766 
0.00139001 0.0426914 0.0185878 
0.00134998 0.0403935 0.018159 
0.00130005 0.020428 0.0177336 
0.00218994 0.0386424 0.0195695 
0.00141003 0.018375 0.0176849 
-0.00203003 -0.021385 0.0159262 
-0.000400024 0.0087399 0.0028071 
-0.00192004 -0.0177082 0.0119088 
-0.01554 0.0469544 0.005766 
-0.00941003 -0.0157447 0.0542016 
-0.00235999 -0.0112655 0.0079729 
-0.00934998 -0.0118766 0.0545094 
-0.00201001 -0.0259364 0.02984 
-0.00103003 0.0428416 0.0201702 
-0.00218994 -0.023451 0.0097504 
0.00138 0.0185592 0.0197219 
-0.00202002 -0.0216089 0.009784 
0.00219995 0.0380162 0.0219261 
0.00122998 0.0180058 0.0239348 
-0.00415002 -0.0375885 8.24013e-05 
-0.01154 -0.0315636 0.0356164 
0.000280029 0.024232 0.0394765 
0.000219971 0.0023001 0.0140613 
-0.00422998 -0.0393258 0.0018826 
-0.00762 0.04629 0.0192487 
-0.00696997 0.0038136 0.0548373 
-0.00162 -0.0135203 0.0140985 
0.00278003 0.0422334 0.0196762 
-0.00114001 0.0301815 0.0376425 
0.00153003 0.0223248 0.019922 
-0.00442004 -0.0332057 0.0411625 
-0.00409998 -0.0417909 0.0118088 
-0.00483997 -0.0378171 0.0037923 
-0.00393994 -0.043476 0.0119709 
0.000829956 0.0363209 0.0218217 
-0.00978003 -0.0332351 0.0366836 
-0.00408997 -0.0375708 0.0019185 
0.000280029 0.000535099 0.0198577 
-0.00243005 -0.0138262 0.0404313 
-0.00259998 0.0424864 0.020492 
-0.00077002 0.0385708 0.0220155 
-0.00406995 -0.0392061 -0.000541901 
-0.00406995 -0.0396926 0.0140236 
0.00146997 0.024383 0.0178824 
-0.0075 0.0180255 0.0558217 
0.000540039 0.0343092 0.0238137 
-0.000199951 -0.0074343 0.0301361 
-0.000640015 -0.0014477 0.0197452 
-0.00340002 0.0042828 0.0542614 
0.000199951 0.000555401 0.0039841 
0.00213 0.032398 0.021944 
-8.99658e-05 -0.002024 0.0056336 
-0.00330005 0.033547 0.0373215 
-0.000599976 0.045075 0.0097811 
-0.00678003 0.0408904 0.0225325 
-0.00280005 -0.0196075 0.0458361 
-0.00565002 -0.045271 0.0136317 
0.00188 0.0314625 0.0277556 
0.00140002 0.0205049 0.0253757 
-0.00325 0.0194555 0.0532996 
-0.000579956 0.0003792 0.0217675 
-0.0164 0.054294 0.0017025 
-0.00488 -0.0377885 0.0157315 
-0.00471997 0.0385197 0.0225377 
-0.00051001 0.0033316 0.0438038 
-0.00344995 -0.0318997 0.0373735 
-0.00269995 0.0366349 0.0243639 
-0.000310059 -0.010319 0.0399249 
-0.00897998 0.0155165 0.0575887 
0.00219995 0.0303089 0.027899 
-0.000359985 0.0055584 0.0242949 
-0.01026 -0.0042985 0.0568956 
3.00293e-05 -0.0015514 0.0239365 
-0.01159 0.0337385 0.0389194 
-0.00577002 -0.045653 0.0041494 
-0.00252002 -0.0198691 0.0198967 
-0.00556995 0.0495301 0.000457199 
-0.000689941 0.0075648 0.0082131 
-0.01751 -0.0277342 0.0378979 
-0.00181995 -0.0178693 0.00591 
-0.00681995 0.0427961 0.0224359 
-0.02123 -0.045791 0.0078001 
0.00197998 0.0315591 0.0299172 
0.00139001 0.0205081 0.0276105 
0.00216003 0.0204759 0.0199254 
-0.00482996 -0.035733 0.017861 
-0.01897 -0.046936 0.0061578 
0.000300049 0.0024583 0.0259841 
0.000189941 0.000450901 0.0261014 
0.00182996 0.0182796 0.0037166 
-0.00688 -0.0380087 0.0183514 
-0.00523999 -0.0272325 0.0393672 
-0.00363 -0.0278601 0.0354503 
0.00219995 0.026195 0.0280024 
0.00139001 0.0165783 0.0256544 
-0.00241003 -0.0102658 0.0059805 
-0.00576001 -0.0019108 0.0551164 
-0.0126 -0.0080548 0.0561568 
-0.02384 -0.045518 0.0118885 
0.00269995 0.0362852 0.0079506 
-0.0129 -0.0280373 0.038115 
-0.00526001 0.0021581 0.0544559 
0.00191003 0.0103933 0.0376333 
-0.00506006 0.0245618 0.041833 
-0.00768994 0.0433561 0.023194 
-0.00456006 0.0449565 0.0033416 
-0.00712 0.0056771 0.0546991 
-0.00191003 -0.0199993 0.0038868 
-0.0171801 -0.0338885 0.0342369 
2.00195e-05 -0.000161499 0.0438716 
-0.00262 -0.0178333 -0.000255901 
-0.00106006 0.0020851 0.0518831 
-0.000109985 -0.0018684 0.0518934 
-0.0005 0.000250702 0.0177172 
0.000150024 0.0040245 0.0478912 
-0.01136 -0.02962 0.0367216 
-0.00380005 -0.0355801 0.0140189 
-0.000699951 -0.0039961 0.0381576 
-0.01921 -0.031753 0.0362744 
-0.00763 -0.0273644 0.0396376 
0.000569946 0.0061256 0.0377402 
-0.0221899 -0.046234 0.0090112 
0.00234998 0.0323308 0.0237782 
-0.00896997 0.0141545 0.057605 
-0.00106995 -0.0038866 0.0079415 
-0.00701001 -0.043895 -0.0022148 
-0.0133199 -0.0180047 0.0555178 
0.00197998 0.0262396 0.0080538 
0.000660034 0.0181238 0.0459867 
-0.00562 -0.0222832 0.0538625 
-0.00740002 -0.037508 0.0218219 
-0.00709998 -0.025333 0.0501057 
1.00098e-05 0.000439602 0.0057936 
0.00118994 0.022378 0.0076222 
3.00293e-05 0.0002099 0.0458999 
-0.00839001 -0.046396 0.0088468 
-0.00052002 0.0020062 0.0196416 
-0.00464001 -0.0341345 -0.0001665 
-0.00180005 -0.0119527 0.0500078 
0.000619995 0.0161324 0.0498675 
0.00242004 0.0321457 0.0020117 
0.000959961 0.0180831 0.0142517 
-0.0015 0.010115 0.0538306 
-0.00538 -0.043734 0.0059203 
-0.03866 -0.043168 0.0060852 
-0.0111801 -0.0158367 0.0556509 
-0.00548999 -0.0254647 0.0437362 
-0.00289001 -0.0277626 0.0136875 
-0.00185999 -0.0176379 0.0160472 
0.00188 0.0218436 0.0078001 
0.00026001 0.0043744 0.0496395 
-0.00951001 -0.0256957 0.0478749 
-6.99463e-05 -0.0038088 0.0380427 
-0.00946997 -0.0100975 0.0546063 
0.000199951 0.0021006 0.0477469 
-0.02124 -0.044328 0.0159611 
-0.01325 -0.0258463 0.0482003 
0.00193005 0.0179059 0.0079646 
-0.0152 -0.0394964 0.0274887 
-0.00101001 0.0347057 0.0260506 
-0.00556995 -0.0097827 0.0538829 
0.000810059 0.012234 0.0057593 
-0.00334998 0.0142573 0.0556702 
-0.01127 0.0099294 0.0575558 
-0.00758997 0.0039921 0.0576522 
-0.01751 -0.0414808 0.022142 
0.00270996 0.0382324 0.0098209 
0.00268005 0.034407 0.0138817 
-0.0128199 0.0477172 0.0086522 
-0.000469971 0.0020708 0.0259105 
-0.01279 -0.0364167 0.0302175 
-0.00196997 -0.0277447 0.0241271 
6.99463e-05 0.0021049 0.0498661 
-0.00447998 0.0369226 0.0245896 
-0.0189 -0.043889 0.0157687 
-0.0113 -0.028107 0.0381939 
-0.01563 -0.0404638 0.0186211 
-0.00120996 0.0343481 0.0280436 
0.000810059 0.0119102 0.0478834 
-0.00180005 -0.0177385 0.0319981 
0.00131995 0.0407335 0.0083008 
-0.00217004 -0.025634 0.0180317 
-0.000660034 0.0137616 0.0074018 
0.00219995 0.0261357 0.0259976 
0.00131006 0.0161883 0.0317753 
0.000910034 0.0161946 0.0057786 
-0.00494995 -0.0260348 0.0514524 
-0.01387 -0.0238061 0.0517115 
0.00205005 0.0201113 0.0117482 
-0.01083 0.0079428 0.0577948 
-0.00175 -0.015578 0.0238526 
-0.00266003 -0.0237952 0.0217576 
-0.00509998 -0.0418605 0.0058291 
0.000780029 0.0436216 0.00198 
-0.00396997 -0.0389549 0.0058209 
0.00023999 0.0122791 0.0517689 
-0.00943005 -0.0083076 0.0547922 
-0.00529004 8.30002e-05 0.0552349 
-0.00265002 -0.0216557 0.0300007 
0.00108997 0.0143343 0.0139924 
-0.000849976 0.0262331 0.0384925 
-0.00426001 -0.044764 0.0118724 
-0.00484998 -0.0399413 0.0039476 
0.00232996 0.0322525 0.0080986 
-0.00281006 -0.0277697 0.0159613 
0.00409998 0.0375299 0.0117239 
0.00140002 0.0226784 0.0216803 
-0.000900024 0.0295344 0.0389241 
0.00243005 0.0421665 0.0177009 
-0.00739001 -0.0259798 0.0419008 
-0.00917004 -0.0216795 0.0519163 
-0.00157996 -0.005787 0.0519309 
-0.01099 -0.0016968 0.0564765 
-0.00190002 -0.0215952 0.0259362 
0.00077002 0.0084605 0.0196776 
0.00209998 0.0221764 0.0137656 
0.00192004 0.010268 0.0214507 
-0.00931995 0.0120225 0.0575628 
0.000709961 0.0083395 0.0378591 
-0.000390015 0.003681 0.041763 
-0.00347998 -0.031737 0.0238039 
-0.00731995 -0.0376538 0.0199452 
-0.00754004 -0.0256639 0.0461546 
-1.00098e-05 0.000452202 0.0096126 
-0.00718005 -0.0261753 0.0400228 
-0.00531995 0.0124149 0.0558475 
-0.00493994 -0.029941 0.0412994 
-0.0095 -0.009847 0.0555858 
0.00231006 0.0239546 -1.94016e-05 
-0.00571997 -0.0053957 0.0551958 
-0.00254004 -0.0218176 0.0161276 
-0.00854004 -0.046492 0.0060323 
-0.01351 0.0474219 0.0037147 
-0.00051001 0.0023772 0.0218355 
-0.00348999 0.0103927 0.0554477 
-0.000599976 -0.0017549 0.0300082 
-0.0140601 -0.0265883 0.0457389 
0.00193005 0.0184359 0.0054436 
-0.00137 0.0241661 0.0398583 
-0.01699 -0.047367 0.0125335 
0.00112 0.0126388 0.017902 
0.00272998 0.0419868 0.007829 
-0.00733997 -0.0255625 0.048051 
-0.00073999 -0.00399 0.0321049 
-0.00330005 0.0204935 0.0496978 
-0.000640015 7.74994e-05 0.0256847 
-0.00179004 -0.0154995 0.0219306 
-0.01527 -0.0384297 0.0237416 
-0.00314001 0.0442957 0.0021097 
-0.00268005 -0.0237333 0.0238147 
-0.00534998 -0.0416877 -0.000216999 
-0.00406995 -0.0396215 0.0077834 
-0.00362 -0.0339863 0.0098675 
-0.000699951 -0.002005 0.0378667 
-0.01934 -0.0302003 0.038069 
-0.01116 -0.0081318 0.0558171 
-0.00692004 -0.04373 0.0052621 
-0.00105005 -0.0097651 0.0341145 
-0.00543005 -0.043736 0.0120049 
-0.00398999 -0.042138 0.0100351 
-0.000650024 -0.0038175 0.0400318 
-0.00372998 -0.0359113 0.011992 
0.000209961 0.0160495 0.0518888 
-0.00533997 0.0201715 0.0536212 
-0.01315 -0.0377735 0.0318094 
-0.0136801 -0.0185498 0.0543823 
0.00194995 0.0261953 0.0060379 
0.000920044 0.0103234 0.0177776 
-0.00267004 -0.0219437 0.0098769 
-0.01191 -0.0357475 0.0305539 
-0.00163 0.0444142 0.0214 
-0.00217004 -0.0285152 0.0275975 
-0.00705005 0.0300319 0.0393057 
-0.00871997 0.0459429 0.0147047 
0.00105005 0.0123842 0.0259056 
-0.000180054 -0.0044704 0.0521955 
-0.00194995 -0.0175277 0.0218059 
-0.01137 0.0184607 0.054727 
-0.00777002 -0.0045351 0.054828 
-0.01123 -0.0250542 0.0503195 
-0.00927002 -0.0017421 0.0562027 
-0.00918005 0.008236 0.0577789 
-0.00144995 0.000222401 0.053358 
0.00107996 0.0159711 0.039737 
-0.01209 0.0181057 0.0554318 
-0.00762 -0.0033818 0.0553011 
-0.00168005 -0.0199202 -0.001359 
-0.01789 -0.0330384 0.0389929 
-0.01099 0.0123163 0.0558794 
-0.00707996 0.0443496 0.0216067 
-0.00746997 0.0061236 0.0561959 
-0.00158997 -0.0040335 0.0519271 
-0.00312 -0.0297726 0.0120946 
-0.00242004 -0.0180144 0.0166283 
-0.000810059 -0.0060873 0.0421444 
-0.0153199 -0.0279245 0.0419028 
-0.00506995 -0.0419031 0.0038362 
-0.00178003 -0.0157441 0.0259748 
0.00233997 0.0388447 0.0001973 
0.000930054 0.0180962 0.0058422 
-0.00327002 -0.0316518 0.0279175 
-0.01102 -0.0416937 0.0195505 
-0.00165002 0.0461501 0.0094106 
-0.00553003 0.0481585 0.0020767 
-0.00271997 -0.0257329 0.0237784 
-0.000800049 -0.0017643 0.0120428 
0.00262 0.0364052 0.0157651 
0.00204004 0.0201266 0.0296977 
-0.00338 -0.0237576 0.0378627 
-0.00252002 -0.0175711 0.0282928 
-0.00343994 0.0465651 0.0056929 
-0.01126 -0.0275157 0.045552 
-0.00910999 0.0044231 0.0574121 
0.00076001 0.0119397 0.0458969 
-0.00176001 -0.017853 0.0339942 
-0.000900024 0.0063032 0.000248299 
0.00189001 0.0166251 0.0217117 
-0.00333997 -0.0197706 0.0501267 
0.00131995 0.0223503 0.0098236 
-3.00293e-05 4.28009e-05 0.0516693 
-0.00148999 -0.0117158 0.0480453 
-0.00322998 0.031852 0.0377229 
0.00101001 0.0123313 0.0135957 
-0.01422 -0.0395676 0.0296532 
-0.01885 -0.0269708 0.0394348 
-0.00129004 0.0261784 0.0395622 
-0.00259998 -0.0218846 0.0278003 
0.00107996 0.0143396 0.0159167 
-1.00098e-05 -0.0015293 0.0040096 
0.00047998 0.0065001 0.0159885 
-0.00475 -0.0353955 0.0333719 
0.000959961 0.0301307 0.0360536 
-0.0131801 -0.014977 0.0574536 
-0.01116 -0.047532 -0.0024349 
0.00204004 0.0282002 0.0100109 
-0.01349 -0.0359915 0.0317768 
-0.01547 -0.0219957 0.0535812 
-0.00264001 -0.0205533 0.0141215 
-0.000839966 -0.0078876 0.0437946 
-0.00347998 -0.0319416 0.0136999 
-0.000780029 -0.0038649 0.0101634 
-0.00154004 0.0081635 0.0539382 
-0.00788 -0.0286853 0.0366039 
0.000630005 0.0063898 0.0258939 
5.00488e-05 -0.0015566 0.0218916 
-0.00938 -0.0038145 0.0558842 
-0.00282996 -0.0198524 -8.31985e-05 
-0.00942004 0.0277913 0.0418539 
0.000290039 0.0061736 0.0020874 
-0.00119995 0.0181232 0.053569 
-0.00778003 -0.047205 -0.0013882 
-0.00127002 -0.0058293 4.02985e-05 
-0.01461 -0.0415653 0.0261804 
-0.00176001 -0.0158644 0.0279837 
0.00253003 0.0343469 0.0156556 
0.00214001 0.0263354 0.018016 
-0.00491003 0.0404106 0.0220384 
0.00206995 0.0220777 0.0337708 
-0.00528003 0.002151 0.0553756 
-0.01336 -0.0278883 0.0398518 
-0.02323 -0.045574 0.0106878 
0.0025 0.0364098 0.0177215 
-0.00497998 0.0074709 0.0543925 
-0.00518994 -0.0239691 0.0456105 
-0.00725 -0.045753 0.0096928 
-0.00112 -0.0118808 0.0398785 
-0.01353 -0.0381442 0.0282309 
0.00047998 0.0040169 0.0317328 
-0.00155005 -0.0138171 0.0459671 
-0.00534998 -0.0354725 0.0358011 
0.00194995 0.0122086 0.0316177 
-0.00351001 -0.0158469 0.0518914 
-0.00256995 -0.0180127 0.0058875 
-0.000810059 -0.0056789 0.0360219 
-0.00309998 -0.0298475 0.0178062 
-0.01541 -0.0280062 0.0400102 
-0.00351001 -0.0039478 0.0536267 
-0.01609 -0.0290343 0.0439299 
-0.000839966 3.15018e-05 0.0017734 
-0.01214 -0.0309857 0.041004 
0.000369995 0.0021847 0.0316553 
-0.00339001 -0.001738 0.0537402 
0.00197998 0.0110346 0.032267 
-0.00317004 -0.0137534 0.0518201 
-0.0172 -0.0295036 0.041762 
-0.00181995 -0.0158619 0.0100099 
0.00188 0.0164237 0.0037068 
0.0025 0.0383579 0.0020554 
0.00022998 0.0060579 0.043918 
0.000630005 0.0182014 0.0416885 
-0.00051001 0.0059277 0.0501856 
-0.00331995 -0.0297221 0.0320033 
0.000569946 0.0081698 0.0035736 
-0.00212 -0.019711 0.0494088 
-0.00114001 0.0202777 0.0517996 
0.000410034 0.0062639 0.0137987 
-0.00141003 0.0356602 0.0259838 
0.00108997 0.0443485 0.0101143 
-0.00284998 -0.0180326 0.0479935 
-0.000859985 -0.0033418 0.0200451 
-0.00272998 -0.0219299 0.0260671 
0.00117004 0.014517 0.0179692 
-0.00179004 -0.0294138 0.0308035 
-0.00731995 0.0155999 0.0559669 
-0.01146 -0.0098961 0.0559897 
-0.00933997 0.0184871 0.0560298 
0.00206006 0.0201646 0.023968 
0.00270996 0.0361455 0.0099678 
-0.00717004 0.0096379 0.0545879 
0.00127002 0.0162666 0.0197177 
-0.00755005 -0.007665 0.0544114 
-0.01124 -0.0296163 0.0420061 
-0.009 0.0026027 0.0574153 
-0.000939941 -0.0056906 0.0240726 
0.00204004 0.0205021 0.003364 
-0.00427002 -0.0371387 -0.0021509 
-0.00530005 -0.021814 0.0500649 
0.00154004 0.0277668 0.0081661 
-0.0114399 -0.0199141 0.055407 
-0.0132 -0.0238549 0.0500234 
0.00203003 0.0199552 0.009703 
-0.00912 -0.0341656 0.0320056 
0.000630005 0.0102035 0.0439381 
-0.00532996 0.0060807 0.0558065 
0.00223999 0.0242769 0.0158074 
-0.00714001 -0.043555 -0.0037925 
-0.00291003 0.030191 0.0380736 
0.00173999 0.0098694 0.0080083 
-0.00513 0.0241157 0.0435065 
-0.00477002 -0.0316219 0.0438015 
-0.00792004 -0.0387586 0.0213631 
-0.00238 -0.0084536 0.0028135 
-0.00121997 -0.0096403 0.0260599 
-0.00117004 -0.0076647 0.0140149 
-0.00252002 -0.0198574 0.0356503 
-0.00319995 0.0404449 0.0214881 
0.000859985 0.034586 0.0220432 
-0.00525 -0.0199445 0.0520052 
-0.00966003 -0.0273925 0.0436277 
0.00191003 0.0182709 0.0238554 
-0.00747998 -0.036167 0.0279733 
0.00108997 0.0142579 0.0417939 
0.00121997 0.0161425 0.0374866 
0.00234998 0.026351 0.0161825 
0.000420044 0.0061958 0.0058811 
-0.00277002 -0.0200691 0.0041888 
-0.00731995 -0.0356106 0.0316561 
-0.00556995 -0.0354394 0.0278545 
0.00208997 0.0221694 0.0318642 
-0.01112 -0.045572 0.0140477 
-0.00163 0.0061841 0.0538264 
-0.00688 -0.021763 0.0501948 
0.00175 0.0137454 0.0053304 
-0.001 -0.0075793 0.021891 
-0.00077002 -4.23012e-05 0.0118471 
-0.01441 -0.0305592 0.034656 
-0.00815002 0.0467231 0.0114318 
-0.0154 -0.0318166 0.0341644 
-0.000839966 0.0183296 0.0477876 
-0.00216003 -0.0179252 0.0497854 
0.00190002 0.0131096 0.0080724 
-0.00504004 0.0259797 0.0401449 
-0.00221997 -0.0347236 0.0299336 
0.00106995 0.0122272 0.0317838 
-0.00402002 -0.0228192 0.05167 
-0.01539 -0.0235606 0.0516696 
-0.0134399 -0.0395979 0.0197836 
-0.00313 0.0220833 0.0455929 
0.00102002 0.0140215 0.0355512 
-0.00743994 -0.0258675 0.0439114 
-0.000609985 0.002176 0.0240486 
-0.00926001 -0.046334 0.0115565 
4.00391e-05 -0.0016264 0.0357472 
-0.000900024 -0.0057028 0.0121358 
-0.01579 -0.0417 0.0216899 
0.000650024 0.0083779 0.0138186 
-0.02088 -0.0335736 0.0361564 
0.000969971 0.0181796 0.0397901 
-0.01595 -0.0217004 0.0549627 
-0.00075 -0.0079867 0.0421101 
-0.00254004 -0.0197994 0.0154533 
-0.00073999 0.0004282 0.0437719 
-0.00912 -0.043548 0.0159417 
-0.000589966 0.013733 0.0520208 
-0.00453003 0.0456461 -0.000432999 
0.00047998 0.0063269 0.017845 
-0.00459998 -0.0353979 0.031616 
-0.01339 -0.0300003 0.0362564 
-0.00354004 -0.02179 0.0499336 
0.00253003 0.0341485 0.0100126 
-0.01509 -0.025718 0.0495365 
-0.0134 -0.0417574 0.0177764 
-0.00193994 -0.0338209 0.0314429 
0.000819946 0.0101207 0.0339823 
-0.00306995 -0.0298062 0.0139504 
-0.01146 -0.038222 0.0218046 
-0.00957996 -0.0273763 0.0416955 
-0.01321 -0.0254255 0.0495313 
0.00197998 0.0178546 0.0099196 
-0.02103 -0.0315374 0.037451 
-0.00559998 -0.0200388 0.0531878 
0.00228003 0.0261819 0.0299306 
-0.00620996 0.0281248 0.038808 
0.00137 0.0163066 0.0276438 
0.00145996 0.0183468 0.0218125 
0.00269995 0.0382271 0.0158429 
0.000900024 0.01036 0.0259514 
-0.00735999 -0.0139131 0.0541284 
-3.00293e-05 -0.0069184 0.0287336 
-0.000650024 -0.00164 0.0221327 
-0.0115 -0.0376265 0.0239957 
0.00245996 0.0320726 0.0099217 
-0.01587 -0.0336098 0.032693 
-0.000579956 5.12009e-05 0.0320411 
-0.02774 -0.045467 0.0044291 
-0.00106006 -0.0076577 0.0181231 
-0.00360999 -0.0318025 -0.000141602 
-0.00280005 -0.0258421 0.0160387 
-0.01077 0.0285418 0.0402811 
-0.00618994 0.0353521 0.0309934 
-0.00555005 0.0043587 0.0555309 
-0.00820996 -0.0343371 0.0299084 
0.00131995 0.0179491 0.0358397 
-0.00138 -0.01141 0.0181649 
-0.00946997 -0.0357598 0.0299599 
0.000719971 0.0083654 0.0159548 
-0.00181006 -0.0218664 0.029983 
-0.00256995 -0.0216104 0.0217537 
0.000839966 0.0143164 0.005743 
-0.00283997 -0.0258839 0.0216707 
-0.01146 -0.039471 0.021526 
-0.01127 -0.0361447 0.0285147 
-0.00169995 -0.0136146 0.0478689 
-0.00222998 -0.0282071 0.0341899 
-0.00676001 0.0305154 0.038483 
-0.00113 -0.0118298 0.0359692 
0.00216003 0.0222125 0.0198188 
-0.00257996 -0.0157981 1.55983e-05 
0.00233997 0.0304327 0.0177369 
0.000339966 0.0339161 0.0260883 
0.00269995 0.0403157 0.013881 
0.00195996 0.0263559 0.0039297 
-0.00389001 0.0020914 0.0553633 
0.00253003 0.0342956 0.0079553 
-0.00551001 0.0161991 0.0556128 
0.00212 0.030037 0.03196 
-0.00956006 -0.0316051 0.037767 
-8.99658e-05 -0.002062 0.0436588 
-0.0035 -0.0273876 0.0375251 
-0.00556006 -0.0275941 0.0374299 
-0.00152002 -0.0117187 0.0101208 
0.00417004 0.042306 0.013979 
0.000939941 0.0102268 0.0359279 
-0.00709998 0.0282173 0.0396008 
0.00210999 0.030242 0.000413898 
-0.00955005 -0.0359521 0.0273985 
-0.00507996 -0.0353712 0.0295761 
0.00130005 0.0180135 0.0339062 
-0.00260999 -0.007818 0.0508286 
0.00196997 0.0201269 0.0338064 
0.000410034 0.0043674 0.025832 
-0.00245996 -0.0141836 0.0039673 
0.000689941 0.0082336 0.0297404 
-0.00115002 -0.0059825 0.0040846 
-0.000670044 0.001616 0.0378054 
-0.00522998 -0.033897 0.0297669 
-0.00679004 -0.044024 0.0035109 
-0.00117004 -0.0098748 0.0319541 
2.00195e-05 0.0357234 0.024902 
-0.00720996 0.014118 0.0560301 
-0.00130005 0.0443504 0.0060372 
-0.00316003 -0.0219751 0.0419455 
0.00106006 0.0141346 0.0336084 
-0.00310999 0.0357094 0.0319673 
-0.000800049 0.0042472 0.0517624 
0.00264001 0.0419599 0.0057805 
0.000890015 0.0103925 0.0238724 
0.00210999 0.0281802 0.0338809 
-0.00925 0.0437417 0.0240108 
5.00488e-05 0.0022743 0.0117973 
-0.00191003 -0.0197622 0.0438285 
-0.00381006 -0.031646 -0.0018461 
0.00173999 0.013665 0.0034172 
-0.000949951 -0.0075592 0.0280537 
-0.00380005 -0.0357381 0.0175242 
-0.000719971 -0.0037832 0.0421022 
-0.00135999 -0.0118674 0.032036 
-0.0143 -0.0386504 0.0202205 
0.000560059 0.01024 0.0037047 
-0.00346997 0.0116154 0.0545431 
0.000859985 0.0083036 0.0317449 
-0.01401 -0.0336883 0.0324249 
-0.00948999 0.0124915 0.0560581 
0.00097998 0.0105223 0.0216247 
-0.00051001 0.0001847 0.034041 
-0.01058 -0.04616 -0.0031913 
-0.01342 -0.0382389 0.0221878 
-0.000619995 0.0018725 0.0099139 
-0.00325 0.0261275 0.039795 
0.00048999 0.0181378 0.0478838 
-0.00285999 -0.0277938 0.030012 
-0.01955 -0.047294 0.0159433 
0.000160034 0.0021367 0.0356829 
-0.00263 -0.02388 0.0138232 
-0.00501001 -0.0320532 0.031845 
-0.01812 -0.046268 0.0097947 
-0.00160999 0.0218742 0.043535 
-0.01175 -0.0397681 0.0184584 
-0.00293005 -0.0257951 0.0338497 
-4.00391e-05 -0.0018437 0.0459546 
0.00145996 0.0241171 0.0039202 
-0.01713 -0.0356865 0.0324386 
-0.00431006 -0.046081 0.0133771 
-0.00510999 -0.0399549 -0.0017233 
-0.01358 -0.0170819 0.0573508 
0.00194995 0.0262053 0.0101567 
4.00391e-05 0.000202702 0.0477941 
0.00126001 0.0221541 0.0057479 
-0.01147 -0.0201521 0.0526982 
-0.000150024 -0.0060008 0.0521567 
0.0015 0.0279724 0.0043738 
-0.00201001 -0.0195359 0.0181096 
-0.00112 -0.005908 0.0022234 
-0.00365002 -0.0237001 0.0476648 
-0.00515002 -0.0420215 0.0078329 
0.000140015 0.0040846 0.003795 
-0.00928003 -0.04591 -0.000302299 
-0.00048999 0.0021047 0.0275387 
-0.00739001 0.0122859 0.0563049 
-0.000369995 0.0041135 0.0241343 
0.000140015 -0.0052809 0.0243547 
-0.00164001 -0.0158395 0.0319149 
-0.00416003 -0.0390882 -0.0024725 
-0.00339001 -0.0314797 0.0198469 
-0.000430054 0.0040562 0.029076 
0.00139001 0.0283874 0.0276683 
-0.00110999 0.0205046 0.0440673 
-0.01463 -0.020605 0.0540095 
-0.00303003 -0.0296795 0.0237178 
-0.000670044 0.0308231 0.0364835 
-0.01803 -0.0376458 0.0330257 
0.00115002 0.0220636 0.0018084 
0.00212 0.0180199 0.0117932 
0.00113 0.0159846 0.0354609 
-0.00745996 -0.0298686 0.0361194 
0.00221997 0.0263059 0.022119 
-0.00538 -0.0016024 0.0544735 
-0.00255005 -0.0103688 7.49016e-05 
0.00231995 0.03239 0.0178644 
-0.00539001 -0.0279063 0.0360019 
-0.00167004 -0.0118187 0.0079718 
0.00194995 0.0241464 0.0357711 
-0.000579956 -0.0020681 0.03184 
-0.00373999 -0.0336773 0.0079277 
-0.00168994 -0.0179554 0.0358372 
0.000189941 -0.001674 0.0295739 
0.000920044 0.0120948 0.0437427 
-0.00868994 -0.0265191 0.0401049 
-0.00358997 -0.0298152 0.0019336 
0.00188 0.0195894 -6.72989e-05 
-0.00103003 -0.005591 0.0198311 
-0.00235999 0.0435874 0.0078049 
-0.01514 -0.0377889 0.0304449 
-0.00279004 -0.0236461 0.0301616 
-0.00546997 -0.0418443 -0.0020926 
-0.00027002 -0.0061214 0.0399442 
-0.00180005 -0.0156123 0.0160615 
-0.000790039 -0.0077834 0.0401036 
-0.00345996 -0.0320241 0.0099304 
0.00210999 0.0283122 0.0021774 
-0.00928003 0.0078956 0.0559417 
-0.000209961 -0.0137038 0.0325301 
0.00073999 0.0081059 0.033833 
-0.00390002 -0.037749 0.0101678 
0.000369995 0.0101475 0.000406101 
-0.01474 0.0470311 0.0111212 
0.000800049 0.0159407 0.0457859 
-0.00507996 -0.0162238 0.0524618 
0.00178003 0.0228218 0.0017983 
-0.00253003 -0.0122665 -4.66995e-05 
-0.00959998 -0.0197262 0.0537018 
0.000829956 0.0162221 0.000254799 
0.00223999 0.0262544 0.0337819 
-0.00728003 0.0104566 0.0576053 
0.00146997 0.0164287 0.0239964 
-0.00575 0.0334756 0.0337665 
-0.00488 0.0055291 0.0542389 
-0.01867 -0.045028 0.0194665 
0.00077002 0.0099828 0.0417941 
0.00119995 0.0445914 0.013945 
-0.000790039 0.0364796 0.0221244 
0.00221997 0.0241102 0.0297032 
-0.00480005 0.0228835 0.0440511 
-0.00706995 0.0388243 0.0240089 
-0.00097998 -0.0038791 2.45018e-05 
-0.00717004 0.0194764 0.0549594 
-0.01103 -0.0138275 0.0556356 
-0.00393005 -0.0356821 0.0039774 
-0.00179004 -0.0040595 0.0533879 
0.000349976 0.00603 0.0039772 
-0.00276001 -0.0198937 0.0019723 
-0.000630005 0.0040417 0.004122 
-0.00498999 -0.0241507 0.0438762 
-0.02358 -0.044909 0.000500401 
-0.00565002 0.0178558 0.0550584 
0.00291003 0.0361663 0.0120595 
-0.00477002 -0.0379594 -0.0001385 
-0.00334998 -0.0297996 0.0038414 
-0.000959961 -0.005599 0.0178792 
0.00212 0.0302847 0.0261906 
-0.00162 -0.0159523 0.0440005 
-6.00586e-05 -0.0057774 0.0359518 
-0.00478003 0.0369197 0.0262977 
-0.00928003 0.0040131 0.056357 
-0.0114 -0.0278641 0.0398305 
-0.01547 -0.0398778 0.0200254 
-0.000949951 0.0341594 0.0340422 
-0.00397998 -0.0358901 0.0019274 
-0.00194995 -0.0159182 -0.0003661 
-0.01515 -0.043829 0.0162126 
-0.00721997 -0.045599 0.0035763 
-0.000640015 -0.003678 0.0260799 
-0.00112 -0.009769 0.046033 
0.00146997 0.0200149 0.0318905 
-0.00125 0.0201721 0.0495612 
-0.00578003 -0.0236985 0.0529816 
-0.00151001 0.0041261 0.0536938 
-0.00344995 0.0359545 0.0300172 
-0.00483997 -0.0399235 0.0078538 
0.00077002 0.0162791 0.0038882 
-0.00177002 -0.0138305 0.0098952 
-0.00185999 -0.0159111 0.0498362 
0.00113 0.0164428 0.0134851 
-0.00746997 0.0102932 0.0563299 
-0.01025 -0.0289054 0.0456558 
-0.00329004 -0.0258 -0.0002304 
-0.0106899 0.0294612 0.0417458 
-0.00340002 -0.0317745 0.0178812 
-0.00116003 -0.0096859 0.0278713 
0.00105005 0.020205 0.0017437 
-0.00504004 -0.0398181 -0.000148102 
0.000199951 0.0042125 0.0437889 
-0.00132996 -0.0137857 0.0419866 
-0.00193994 -0.0198127 0.0339374 
-0.004 -0.0336153 -0.0020485 
-0.00227002 -0.0127486 0.0524636 
-0.00260999 -0.0219595 0.012044 
0.000920044 0.0201129 0.0076395 
0.00237 0.0400597 0.0019373 
-0.00873999 0.0194718 0.0554024 
0.00197998 0.0184276 0.0199951 
-0.00284998 -0.0275591 0.0259289 
0.00412 0.0419318 0.0098388 
0.000670044 0.0101338 0.0078283 
-0.00958997 -0.0372398 0.0293741 
0.00264001 0.0362712 0.0021282 
0.000939941 0.0103282 0.0197936 
-0.00948999 -0.0334465 0.0397998 
-0.00453003 -0.0312496 -0.0017361 
-0.00401001 -0.0377944 0.0137004 
0.00256006 0.0440874 0.0058804 
-0.00125 0.0162059 0.053719 
0.000329956 0.0039691 0.037954 
-0.00155005 -0.0138786 0.0316756 
-0.00125 -0.0098587 0.0479698 
-0.00489001 -0.0397848 0.0019473 
-0.000689941 0.006092 0.0038256 
0.00198999 0.0162558 0.0100414 
0.000959961 0.0182904 0.0018267 
0.00268994 0.0381397 0.0039262 
-0.00347998 -0.0338149 0.0119363 
-0.000560059 -0.001977 0.0360003 
0.00141003 0.0263963 0.0016779 
0.00215002 0.0221738 0.0297963 
-0.00315002 -0.0237011 -0.0003186 
0.000140015 0.0021654 0.0439057 
-0.000150024 -0.0069816 0.0265545 
-0.000920044 -0.0020419 9.57985e-05 
-0.00260999 -0.0218906 0.0358476 
0.00120996 0.0144439 0.0237833 
-0.00258997 0.0218419 0.0498161 
-0.01113 -0.0118709 0.0559782 
-0.01558 -0.041764 0.0179621 
-0.01854 -0.04393 0.0201318 
0.00022998 0.0198726 0.0496796 
-0.00530005 0.0370169 0.0277783 
0.000310059 0.0079606 0.000332401 
-0.00125 0.020255 0.0475537 
0.00131006 0.0240222 0.0018765 
-0.00162 -0.0136003 0.0179767 
0.000430054 0.004078 0.0358934 
0.00204004 0.0206475 0.0157311 
-0.00931006 0.0475232 0.0039279 
0.000540039 0.0098583 0.0477627 
-0.01301 -0.0232403 0.0529098 
0.00217004 0.0197745 0.0138956 
-0.000780029 -8.10013e-05 0.000122501 
-0.00352002 -0.0060081 0.0537733 
-0.0118101 -0.0317705 0.0395434 
0.000189941 0.0019876 0.041916 
-0.00320996 -0.0237575 -0.0018438 
-0.00103003 -0.0098607 0.0399727 
-0.00490002 0.0163944 0.0543968 
-0.000369995 0.0017806 0.0417916 
-0.00539001 -0.0336135 0.0334592 
-0.01504 -0.029257 0.0420284 
-0.00075 -8.61015e-05 0.0038615 
-0.01149 -0.0178165 0.0555695 
-0.00255005 -0.0218023 0.0239109 
0.00077002 0.0142054 0.0037392 
-0.00743005 -0.0018781 0.0556786 
-0.00155005 -0.0117969 0.0020247 
-0.00485999 -0.0138631 0.0524551 
9.99756e-05 0.0062525 0.0518432 
0.000469971 0.0441363 0.0193711 
-0.000810059 -0.0059348 0.0461413 
-0.00916003 0.0062566 0.0576503 
-0.00151001 0.0021785 0.0536121 
-0.00212 -0.0220847 0.0337726 
0.000630005 0.0082315 0.0116761 
-0.02062 -0.0417518 0.0205728 
-0.00959998 -0.037259 0.0277972 
0.00271997 0.0361772 0.0039796 
0.000599976 0.0141202 0.000310501 
-0.00148999 -0.0116384 0.0139251 
-0.01155 -0.034721 0.0334158 
0.000119995 -0.0015692 0.0161056 
0.00208997 0.026329 0.013949 
0.000819946 0.0161923 0.0436074 
0.00196997 0.0220026 0.000365002 
-0.00254004 -0.0117381 0.0020605 
0.00214001 0.0243953 0.0239228 
-0.00548999 -0.0177358 0.0534882 
-0.00294995 -0.0218505 -0.0001269 
0.000869995 0.0140606 0.0438224 
-0.00610999 -0.0349271 0.0373985 
-0.00715002 -0.0362142 0.0218859 
-0.01386 -0.031534 0.0390191 
-0.00232996 -0.0082576 0.000428902 
0.00190002 0.0105924 0.0339835 
-0.00369995 -0.0143806 0.0533565 
-0.00556006 0.0239126 0.045931 
-0.00106995 0.0441747 0.0017515 
0.00141003 0.0200384 0.0358912 
-0.00897998 -0.0257536 0.0499255 
-0.01717 -0.043872 0.0194148 
0.00160999 0.0325339 0.0019679 
-0.00394995 -0.0357711 -0.000182701 
-0.00193005 -0.0198486 0.0378101 
-0.00388 -0.0338654 0.0017947 
-0.00114001 -0.0095032 0.0200704 
-0.00098999 -0.0099196 0.0440307 
-0.00520996 0.0469825 0.00385 
0.000660034 0.0181451 0.0497336 
-0.00553003 0.0104083 0.0558507 
-0.000640015 0.0018753 0.000178101 
4.00391e-05 -0.0037753 0.0356542 
-0.000420044 0.003895 0.0360962 
-0.00343994 -0.0315891 0.0300495 
0.00425 0.0433911 0.0120757 
0.00101001 0.0120587 0.0378931 
-0.00309998 0.000284199 0.0526741 
-0.01164 -0.047227 -0.0004855 
-0.00343994 -0.0277789 -0.0001525 
-0.00946997 -0.0273809 0.0456518 
0.00206995 0.0180814 0.0138607 
-0.000150024 -0.0097401 0.0363056 
-0.01155 -0.0380038 0.0260685 
-0.01136 -0.0337709 0.0338502 
0.000849976 0.0223348 0.0379565 
-0.01166 -0.048949 0.0119272 
0.00223999 0.0262969 0.0242989 
0.00132996 0.0162197 0.0296651 
0.00201001 0.020576 0.0258939 
0.000359985 0.0045762 0.0178998 
0.00027002 0.005898 0.0476311 
-0.018 -0.045974 0.0072926 
-0.0015 0.0223159 0.0416036 
-0.00516003 -0.0318058 0.0338158 
0.000160034 0.0024138 0.0161933 
-0.00977002 -0.046804 0.0129424 
-0.00290002 -0.0238514 0.0041141 
-0.00478003 -0.0362538 -0.0020902 
-0.000949951 -0.0037448 0.002141 
0.000829956 0.0161808 0.0018987 
-0.00342004 -0.035138 0.027921 
-0.00203003 -0.0236442 0.0218334 
-9.99756e-05 -0.0041039 0.0436621 
-0.00173999 -0.0177623 0.0299965 
0.00401001 0.0441608 0.0162675 
0.000569946 0.0122177 0.0497764 
-0.00322998 -0.0298104 0.0076683 
-0.000859985 -0.0060334 0.038126 
-0.00331995 -0.000446499 0.055155 
0.00209998 0.0281604 0.0039064 
0.00129004 0.0286183 0.0297854 
-0.00120996 0.020538 0.0458252 
-0.00244995 -0.0133157 0.0094278 
-0.00506006 -0.0299599 0.0340575 
-0.00309998 -0.0297692 0.0259049 
-0.000699951 0.003853 0.0497401 
-0.00317004 0.0361463 0.0260973 
-0.00338 -0.031433 0.031807 
-0.00325 -0.0258518 -0.0018329 
-0.00943005 -0.0299568 0.0363605 
0.00222998 0.0301 0.0058265 
0.00231995 0.0303197 0.003863 
-0.00917004 -0.0363445 0.0242543 
-0.00271997 0.0016275 0.0527163 
-0.00906995 0.0282524 0.0398768 
0.00026001 0.0061174 0.000562698 
-0.00110999 0.0185725 0.0517832 
-0.00760999 -0.045304 0.0151809 
-0.00342004 0.016086 0.0555893 
-0.001 -0.0039707 0.0061346 
-0.00275 -0.0178878 0.0018561 
0.000119995 0.000451698 0.0136962 
0.000680054 0.008085 0.0397512 
0.00075 0.010344 0.0117557 
-0.01108 -0.0088471 0.0576098 
-0.00229004 -0.0302462 0.0241719 
-0.00753003 0.0163771 0.0571231 
-0.00717004 -0.0201177 0.0522811 
-0.00762 -0.0374858 0.023543 
-0.00532996 -0.0216306 0.0520646 
-0.01586 -0.0424294 0.0237872 
-0.00241003 0.0183464 0.0548964 
-0.00112 -0.0059085 0.0059647 
-0.00322998 -0.0277753 0.0038439 
-0.000280029 -0.0063145 0.0073764 
-0.01717 -0.0301064 0.0363891 
-0.00945996 -0.0318012 0.0344025 
-0.000719971 -0.001658 0.0037491 
-0.0035 -0.0279297 0.0338096 
-0.000199951 -0.0082304 0.0180382 
-0.000880005 -0.0017069 0.0077969 
-0.00138 -0.0079673 0.0040562 
0.00188 0.0142435 0.0118634 
-0.00943994 -0.047677 0.0113612 
-0.00307996 -0.0238464 0.0017178 
-0.00687 0.0162998 0.0547817 
-0.01764 -0.045949 0.0065538 
-0.000910034 0.022461 0.0401531 
-0.00142004 -0.0113951 0.0222456 
-0.01361 -0.0382452 0.026005 
-0.00315002 -0.0257524 0.0020374 
0.00112 0.0201789 0.0036801 
0.00255005 0.0400965 0.0058349 
-0.00176001 -0.0177883 0.0279669 
-0.000189941 -0.0039293 0.0458965 
0.00193994 0.0162467 0.0077745 
0.000939941 0.0180376 0.007697 
0.00268005 0.0381088 0.0056678 
-0.000949951 0.000163101 0.0518832 
-0.00743005 -0.0235985 0.0496012 
-0.00309998 0.0224748 0.0436668 
0.000949951 0.0141345 0.0375501 
0.000650024 0.0083068 0.0177785 
-0.00307996 -0.0295571 0.0218394 
0.00268005 0.0420058 0.0037774 
0.00138 0.0243185 0.0098208 
-4.00391e-05 -0.0017778 0.0480038 
-0.000599976 -0.0018789 0.0400361 
-0.00369995 -0.033729 0.0158371 
-0.00540002 -0.037632 0.0178604 
0.00269995 0.0401452 0.011835 
-0.000869995 -0.0055415 0.0260577 
0.00202002 0.0203715 0.005649 
-0.00938 -0.015393 0.0554632 
-0.00214001 -0.0257153 0.0201883 
0.00238 0.0341844 0.0020871 
0.00120996 0.0181321 0.0377188 
-0.000969971 -0.00585 0.010103 
-0.00248999 -0.018084 0.0144517 
-0.00075 -0.0059453 0.044218 
-0.00320996 -0.0299013 0.0097703 
-0.000130005 -0.0058648 0.0383955 
-0.00145996 -0.015937 0.0419927 
0.000459961 0.0281504 0.0377796 
-0.00026001 -0.0069797 0.0244467 
-0.000839966 -0.0018781 0.0020553 
0.00137 0.0284579 0.0341079 
-0.000849976 0.0205702 0.0417039 
-0.00307996 -0.0298063 0.0299816 
-0.00282996 -0.0316515 0.0350092 
-0.000439941 0.0042661 0.0458251 
-0.00238 0.0371685 0.021968 
0.000569946 0.0262356 0.0377715 
-0.000959961 -0.0056106 0.0159045 
0.00196997 0.0300936 0.0340968 
0.00101001 0.0121819 0.0358282 
-0.00910999 -0.0358557 0.0262837 
0.00221997 0.0301818 0.0021127 
-0.000530029 0.001982 0.0461608 
-0.00910999 -0.045642 0.0135864 
-0.00485999 -0.0337066 0.0218594 
0.000719971 0.014193 0.0018747 
-0.00718994 -0.0026076 0.0573745 
-0.00155005 -0.0117987 0.0121433 
0.000680054 0.0201062 0.0396778 
-0.00351001 0.0444123 0.0214021 
-0.00301001 -0.0238586 0.035768 
-0.00512 -0.0417971 0.0117602 
-3.00293e-05 -0.0057272 0.0301534 
-0.00157996 -0.0157542 0.03364 
-0.00416003 -0.0395371 0.0039939 
-0.00076001 -0.0039068 0.0300911 
-0.00381006 -0.0356025 0.0060694 
-0.00906995 -0.047341 0.0055701 
-0.00277002 -0.0239188 0.0119167 
0.000380005 0.0024729 0.0238183 
-0.00938 -0.039772 0.0197248 
0.00027002 -0.005212 0.0288454 
-0.00168005 -0.0157835 0.0358727 
0.00104004 0.0103042 0.0379549 
-0.00306006 -0.0179462 0.0500177 
0.00192004 0.0147476 0.0219019 
-0.00131995 -0.0078656 0.0060875 
-0.00206006 0.0459287 0.0017952 
0.00195996 0.0198879 0.0075794 
-0.000829956 -0.0058373 0.0279072 
0.000630005 0.0181212 0.0437263 
-0.00243994 -0.0121007 0.0037221 
-0.00479004 -0.0397889 0.0140791 
-0.00523999 -0.0416932 0.0138416 
-0.00368005 -0.0236873 0.0459706 
-0.000550049 6.40984e-05 0.0159942 
-0.000640015 0.0038021 0.0079784 
-0.0035 0.0233671 0.0497554 
-0.00509998 -0.0241219 0.0478914 
-0.00545996 0.0082695 0.055551 
-0.00368994 -0.0337005 0.0178533 
-0.01897 -0.0373013 0.0339093 
6.00586e-05 0.008145 0.0517006 
-0.000579956 0.006074 0.0023359 
0.00193994 0.0163277 0.0240292 
-0.00607996 0.0144512 0.056985 
-0.00387 -0.0196511 0.0515238 
-0.000959961 -0.0076954 0.0359361 
-0.00268994 -0.0199687 0.0061901 
-0.00523999 -0.0353676 0.0257637 
-0.01317 -0.0376633 0.0299828 
-0.00120996 -0.0118345 0.0420839 
-0.0206801 -0.0282652 0.0386721 
0.000709961 0.016166 0.0479332 
-0.00531006 -0.0157557 0.0535225 
0.000579956 0.0102526 0.0057436 
-0.00343005 0.0121872 0.0552998 
0.00225 0.0281598 0.0318819 
0.00025 0.002655 0.0099192 
0.000349976 -0.001522 0.0338541 
0.000939941 0.0118193 0.0400097 
-0.00173999 -0.0179428 0.0400421 
-0.00177002 -0.0079082 0.0518303 
-0.00942004 -0.0378894 0.0216309 
0 5.92995e-05 0.0380412 
-0.00558997 -0.0256064 0.0399916 
0.00195996 0.026325 0.0358036 
0.000420044 0.0060947 0.0117657 
-0.000349976 0.0359005 0.0203259 
0.000550049 0.0446516 0.0120556 
-0.01379 -0.040144 0.0285448 
0.00117004 0.0125423 0.0237678 
-0.01099 -0.0223263 0.0507873 
0 -0.0044399 0.0499353 
-0.00193005 -0.0176015 0.0238485 
-0.00075 -0.0079462 0.0378717 
-0.00365002 -0.032023 0.0039671 
-0.00318005 -0.0277899 0.0319466 
-0.00271997 -0.0223697 0.014113 
-0.00952002 -0.0176144 0.055241 
0.00183997 0.0243277 0.0017277 
-0.00114001 -0.0119396 0.0378878 
-0.01654 -0.0413512 0.0250128 
-0.00325 0.0060693 0.0541101 
-0.00359998 -0.0297811 -0.000259201 
-0.000900024 -0.0057208 0.0141861 
-0.00176001 -0.0179625 0.0379382 
0.000219971 -0.0015218 0.0318205 
0.000910034 0.01219 0.0418117 
0.00025 0.0042426 0.0058125 
0.00248999 0.0341588 0.0036794 
-0.00375 -0.0235651 0.0420019 
-0.00519995 -0.0419049 0.0096089 
-0.00896997 0.0176055 0.0569383 
0.00209998 0.0205052 0.0220693 
-0.00144995 -0.0137777 0.0400026 
0.000560059 0.0040356 0.0300089 
-0.00545996 0.0343315 0.0322592 
0.000949951 0.0101389 0.0399039 
-0.00597998 -0.0415721 0.0181033 
-0.00282996 0.0441468 0.0202488 
-0.00276001 -0.0237651 0.0337805 
0.00144995 0.0243023 0.0077338 
-6.00586e-05 -0.0020991 0.0497215 
-0.00051001 0.000191299 0.0197435 
-0.00075 -0.0019265 0.0420879 
-0.00356006 -0.0337735 0.0137951 
-0.000670044 0.0018335 0.0038764 
-6.99463e-05 -0.0042733 0.0403105 
-0.00306006 -0.0296772 0.0278818 
-0.00933997 -0.0132978 0.0554774 
0.00198999 0.0240007 0.0100188 
0.000449951 0.01014 0.001872 
-0.01099 0.0248654 0.0435558 
0.000839966 0.0427115 0.007845 
-0.01503 -0.0397171 0.0259292 
0.00106006 0.0138328 0.0398089 
-0.00706995 -0.0356796 0.0257897 
-0.00195996 -0.0103275 0.0518295 
0.000180054 -4.24995e-05 0.0399674 
-0.00552002 -0.0251863 0.0460717 
0.00192004 0.0137301 0.0017336 
-0.00106006 -0.0076242 0.0258803 
0.00052002 0.0061427 0.0300341 
-0.00072998 -0.0036704 0.0279939 
-0.00717004 -0.045825 0.005852 
-0.0139399 -0.028442 0.0365938 
0.00262 0.0362296 0.0058397 
-0.000439941 0.0041794 0.0099545 
-0.00318005 0.0246002 0.0404208 
-0.00517004 -0.0241949 0.041933 
0.00218005 0.026275 0.0318213 
