ply
format ascii 1.0
comment FreeCAD generated
element vertex 1771
property float x
property float y
property float z
end_header
-12.1857 -35.4813 -2.20996 
-24.7864 22.4753 -7.14001 
-25.1613 23.8744 -8.84998 
-13.4432 -35.3528 -2.81995 
-14.5434 -33.4292 -3.62000 
-26.7133 20.0757 -5.23999 
-12.9507 -30.1043 -3.88000 
13.5220 4.18470 -0.560059 
-11.9992 -33.9562 -2.32996 
-18.4939 -28.5959 -4.68005 
-9.42100 32.9049 -3.32996 
-3.21320 3.47830 1.93994 
-5.50840 36.0629 -7.35999 
-7.91360 -36.7512 -1.12000 
-8.51100 -31.4789 -2.14001 
-22.3825 -29.7713 -4.50000 
23.0486 -32.0864 -4.54004 
-11.7235 32.1006 -4.45996 
-9.19180 35.6123 -7.37000 
20.1570 47.1478 -10.6600 
-20.2885 -30.1431 -4.84998 
26.1917 -14.3669 -2.55005 
26.3672 -11.8647 -1.82996 
19.9854 45.3151 1.79004 
26.8652 -34.1227 -4.78003 
23.0205 -34.3103 -4.66003 
5.21180 45.9654 -1.68005 
-8.74780 35.4919 -2.19995 
3.22400 -25.2628 -2.22998 
-9.50820 34.5445 -2.43994 
13.3793 2.03150 -0.739990 
-16.5061 -29.1046 -10.0200 
-22.9858 -25.8287 -4.65002 
-15.3854 30.6039 -12.4399 
-1.09660 4.32350 -0.439941 
6.06650 45.2289 -4.37000 
-33.0437 12.6894 -12.4000 
-29.7120 -12.5581 -11.7300 
-29.7119 -14.4947 -13.1000 
27.2716 -29.9484 -4.43005 
-31.2150 -6.46490 -12.8900 
-30.5026 -11.5811 -13.3900 
7.19920 46.4901 0.869995 
-20.7319 -17.7407 -2.62000 
5.54260 -41.0726 -9.34998 
-2.98100 -29.3568 -2.30005 
-13.8477 -18.2199 -2.62000 
-3.33590 34.9250 -2.70996 
9.23070 45.8129 0.719971 
17.0336 42.5052 -1.17004 
15.1385 42.6298 -1.41003 
18.6893 -26.0333 -1.83997 
13.1657 40.5770 0.979980 
13.4162 42.8814 -1.63000 
20.9013 -25.8414 -2.03003 
11.0016 40.5679 0.949951 
10.4720 -44.1930 -15.1801 
11.1944 42.2898 -1.44995 
6.88420 33.9727 1.51001 
12.9726 -45.2950 -19.2800 
1.43850 9.48920 1.89001 
20.8222 -46.4330 -22.3700 
2.33880 -32.4880 -4.53003 
10.8895 -44.6600 -17.9301 
13.7882 -46.1610 -13.3300 
-26.8115 -11.9152 -2.15002 
-26.6203 -24.9104 -12.3199 
7.69520 -44.5300 -22.4000 
1.63760 -38.6812 -17.9500 
-29.2154 19.9883 -1.70996 
-0.0736008 -36.4371 -10.3400 
1.36520 7.68370 1.81006 
-15.6342 -31.2530 -18.3500 
-16.9361 -26.6364 -10.0100 
-32.2514 -15.2114 -11.9800 
4.54250 -40.1908 -19.3000 
-32.3540 -13.1105 -11.5800 
8.83790 -8.78960 -0.280029 
-32.7565 2.93630 -10.6200 
17.4697 -23.6194 -1.93005 
0.328800 -32.5386 -4.71997 
13.3196 -23.3177 -2.06995 
-32.4565 -11.0096 -11.1801 
-1.76630 -32.3804 -4.60999 
-32.9236 8.33280 -12.7600 
9.82900 -43.9100 -17.1600 
-29.9657 -22.8639 -14.7400 
-32.5461 -6.82430 -11.4700 
19.1774 42.8912 -1.69995 
9.30480 -45.1950 -22.6700 
22.6269 52.3872 -12.6100 
26.2700 -10.4470 -1.93005 
-8.95870 -35.7625 -15.4800 
-3.92020 -32.4733 -4.58997 
-28.9183 -21.6469 -13.2100 
6.57210 -44.1240 -22.3101 
22.1994 -27.5749 -2.20996 
21.4026 -47.4330 -15.4200 
-7.18350 -15.9246 -2.32996 
-10.8295 -17.5068 -2.38000 
12.1504 46.9239 -11.0900 
1.65210 12.0776 1.79004 
-0.570499 11.4873 2.06006 
21.0620 -7.43290 -0.119995 
23.2832 -7.29910 -0.0999756 
24.5076 34.3871 2.88000 
21.5882 -3.15970 -0.0799561 
23.0857 -21.5770 -1.53003 
20.7930 11.9947 -0.359985 
13.3891 37.2858 3.70996 
17.7296 12.2263 -0.660034 
11.8857 46.7192 3.33997 
17.2292 9.86200 -0.959961 
15.9506 9.86840 -0.449951 
21.0423 10.3614 -0.430054 
9.00560 38.5460 3.93994 
11.7324 26.5335 1.47998 
11.5608 35.6586 3.92004 
-29.6854 1.38870 -7.29004 
17.2804 45.7048 0.829956 
5.66480 46.3575 0.349976 
1.24380 5.58000 1.79004 
-17.0416 25.0059 -8.91003 
-14.7611 17.9154 2.29004 
8.36790 -38.9815 -6.43994 
4.74760 28.7428 1.62000 
4.74060 26.8161 1.55005 
-15.6958 19.5768 1.92004 
28.5673 -37.9029 -4.93005 
-17.5193 -14.6031 -2.44995 
3.56880 42.7368 -3.13000 
2.50190 24.5863 1.54004 
13.7660 46.4189 1.98999 
11.4918 -44.5490 -4.31995 
-18.4479 19.1814 1.75000 
-22.5394 17.3427 2.02002 
28.4363 -39.8137 -5.23999 
-2.71820 26.7419 1.59998 
-2.66230 24.6042 1.54004 
-19.9088 17.5119 2.12000 
-4.71680 34.7940 -2.97998 
-22.5649 15.6699 1.94995 
-22.4702 14.5645 1.94995 
-10.9146 33.6877 0.180054 
14.7487 46.7576 -12.0601 
-20.1737 12.1806 1.81995 
21.0821 -36.2339 -4.93994 
-12.5985 -33.9329 -7.54004 
-17.6484 17.7604 2.06995 
-12.5460 17.7836 2.03003 
-30.0380 -9.26860 -7.85999 
-7.61250 33.1360 -2.55005 
-19.8975 -27.7252 -4.76001 
-27.2524 -2.66150 -3.01001 
14.2095 35.8276 4.03003 
7.14300 46.7239 2.27002 
6.10970 46.6328 1.79004 
-13.0517 -19.9566 -2.48999 
-20.0745 14.0319 1.93005 
-27.4595 -3.63610 -2.67004 
26.3529 -19.9134 -3.02002 
-12.6330 -32.0052 -7.54004 
-23.0188 -26.3706 -3.45996 
-13.1292 12.5014 1.81006 
-2.83080 -37.5556 -4.03003 
-17.8263 15.8804 1.92004 
-12.9811 20.0470 1.93005 
15.3856 8.27500 -0.760010 
-20.7517 -26.0588 -4.05005 
-17.6679 14.0300 1.93005 
-20.0318 15.7896 2.01001 
3.83760 42.3361 -1.39001 
-13.5304 30.3040 -9.09998 
-9.13370 -36.8882 -3.57996 
-15.4401 16.3264 1.92004 
-7.20730 -37.2862 -2.71997 
3.19580 40.6631 -1.33997 
-16.6692 -27.2740 -7.71997 
-1.25760 -3.36580 0.0100098 
16.4384 35.5761 3.93994 
-5.03520 -37.1614 -2.81995 
-12.9210 22.4720 2.18005 
-11.0464 14.6750 2.02002 
0.392300 -37.2352 -5.37000 
28.1497 -35.7058 -4.10999 
-19.1500 -26.5870 -11.4800 
11.2897 43.7455 3.31006 
7.93800 -44.7200 -16.2100 
16.5737 39.4225 4.13000 
11.1257 24.1444 1.30005 
9.36020 40.4877 3.98999 
-14.4969 -26.6738 -14.5000 
-31.9693 -7.66630 -9.97998 
12.7620 -16.2409 -2.47998 
18.4808 40.3020 3.93005 
12.7526 24.2429 1.43994 
8.15340 -16.1835 -2.31995 
24.2063 -47.2810 -15.4500 
1.61420 36.4159 0.449951 
1.36340 38.0305 -1.68994 
8.62870 -42.2066 -11.1200 
1.90020 34.0195 2.17004 
19.4857 -33.9853 -4.46997 
26.7306 -37.9533 -5.12000 
5.23000 -39.0876 -5.45996 
0.755600 -14.3590 -2.38000 
23.4270 -25.8787 -2.06995 
1.40060 39.5795 0.319946 
-6.65330 -37.8083 -7.52002 
-5.49500 14.2417 1.83997 
3.24080 -37.4618 -5.33997 
-26.9156 7.82990 -0.780029 
-0.306999 37.4511 -3.41003 
-14.9992 -25.2945 -4.16003 
7.36840 -37.3870 -3.94995 
1.49300 38.3180 0.390015 
10.3880 -44.2240 -9.29004 
-20.7303 0.00630188 -0.500000 
-24.1292 -24.9214 -5.69995 
21.7895 -32.1639 -4.66003 
4.50360 -37.4094 -3.62000 
0.495600 -35.5282 -3.25000 
-29.4288 11.8089 -4.93994 
-17.7679 -25.9384 -10.5000 
-8.67330 -25.7419 -2.09998 
-10.1387 29.7339 2.15002 
-9.68200 -32.3623 -12.9600 
5.24610 -35.5698 -3.93005 
-2.35050 33.7553 0.250000 
-29.2843 3.88110 -5.18005 
-26.4254 19.5527 0.0600586 
19.1757 -35.9815 -4.62000 
-2.52150 -37.2814 -7.83997 
2.66970 -35.6020 -3.37000 
11.2927 -45.5970 -23.6400 
3.97190 36.2195 2.63000 
-6.16740 -36.7146 -6.21997 
-30.9848 10.5557 -12.7900 
-4.80640 -37.7810 -7.18005 
-8.95510 -20.0680 -2.43994 
-29.6774 11.6069 -7.23999 
-30.5915 -19.1245 -12.9301 
-27.7576 3.65360 -2.67004 
4.77980 -40.1518 -17.4399 
-8.56460 16.2040 1.87000 
-1.10490 -29.6966 -2.18994 
23.4075 33.4659 1.52002 
10.2753 46.6181 3.69995 
16.2272 30.0796 1.67004 
-21.0856 -28.7164 -13.8000 
13.7618 26.3705 1.47998 
9.81080 41.5747 1.47998 
8.99960 40.4221 1.13000 
-20.5486 25.6089 -10.2500 
11.2691 -47.3530 -13.5100 
16.4397 -47.9730 -6.19995 
7.08470 26.4303 1.54004 
15.7228 -47.6510 -7.34998 
3.10910 39.8067 2.18005 
4.94460 20.3512 1.43994 
-23.9054 15.2822 1.94995 
11.3450 -47.2860 -6.43994 
2.56190 28.1600 1.66003 
1.68990 26.6712 1.54004 
-26.4524 14.1394 1.88000 
24.7776 11.7690 2.05005 
25.0988 15.6843 2.05005 
23.6181 11.6853 1.68994 
-23.2167 23.8433 -7.81006 
18.7094 37.6323 3.94995 
9.09410 22.1964 1.41003 
21.6994 11.7704 1.68994 
-30.0675 7.19100 -1.78003 
5.11890 -3.56000 0.0100098 
4.89350 29.8857 1.64001 
-21.1523 -27.8748 -12.7000 
23.5140 15.6714 1.73999 
-23.0009 -3.80420 -0.800049 
23.7662 30.0089 1.63000 
7.18000 -5.48040 0.0899658 
23.2926 -1.74740 0.0699463 
14.8703 39.4826 4.45996 
1.40690 24.4871 1.64001 
-20.8388 -27.0323 -7.47998 
-9.54540 -27.4913 -5.02002 
-28.0614 8.53420 -0.119995 
24.0816 42.5783 -0.619995 
-3.47870 13.9069 1.82996 
9.24510 -45.4840 -13.7200 
-21.3158 -3.63760 -0.780029 
-30.0826 9.06250 -1.85999 
-22.9419 -27.4824 -13.5100 
19.5280 -47.3140 -5.85999 
-25.5776 -25.5225 -16.7000 
26.5468 -22.5254 -1.31995 
9.37740 -3.61190 0.319946 
-27.1317 -23.8813 -16.9301 
-25.4422 -24.0136 -15.2300 
-25.6687 -22.1824 -9.02002 
4.28420 7.69490 -0.410034 
-25.2749 -27.0477 -16.4200 
-22.6381 -27.3451 -11.9500 
-27.7302 -9.88320 -4.52002 
-6.83960 -3.59990 0.170044 
2.96860 -5.64710 -0.0500488 
-2.48040 22.6645 1.44995 
-9.57620 -11.4797 -0.119995 
-11.3219 -11.3232 -0.219971 
-11.7708 -30.3263 -18.9800 
-9.37600 -13.2934 -0.319946 
-7.03240 -39.3542 -16.6500 
-15.6469 24.8323 -5.03003 
13.1644 9.90120 1.68005 
6.11390 45.2332 1.75000 
-6.61380 24.7695 1.57996 
5.17260 -5.70000 -0.0799561 
5.39210 -39.7448 -7.48999 
13.1740 -47.4520 -6.67004 
-5.09520 -39.5632 -15.2500 
-4.87650 -3.44490 0.140015 
3.04710 -3.65100 0.109985 
-3.17870 -41.1214 -15.2900 
-6.38470 -36.9547 -10.7900 
21.9365 31.8748 1.56006 
3.10110 -43.0960 -18.3101 
11.3379 -5.38120 -0.189941 
4.80800 -7.73150 -0.0500488 
24.0622 45.4235 -4.62000 
-21.0514 -1.97920 -0.680054 
15.2337 -25.4987 -2.22998 
24.5433 40.0173 1.18005 
-8.19010 -39.2907 -17.7600 
19.3498 9.84640 1.75000 
19.0580 32.4340 1.59998 
21.5652 9.70620 1.70996 
19.2894 40.3522 1.27002 
21.2418 42.8659 -1.37000 
-17.4436 -26.4447 -12.5400 
23.2349 17.6304 1.75000 
17.5222 -48.1810 -9.30005 
24.6136 43.8694 -2.42004 
23.6194 35.6032 1.66003 
23.5313 37.7835 1.53003 
25.0830 17.6368 1.95996 
25.3695 25.8477 1.77002 
-31.6864 8.70560 -13.0200 
25.3222 31.7054 1.52002 
25.3064 33.6579 1.43005 
25.2906 35.6105 1.34998 
25.2748 37.5630 1.26001 
25.1925 -36.0639 -4.68005 
23.1309 -35.9501 -4.73999 
24.7417 -45.6780 -5.79004 
-20.1811 -20.7635 -2.05005 
25.1874 -47.4690 -7.50000 
1.00450 -39.1962 -13.2200 
-14.4510 -31.8624 -20.5300 
25.0261 -47.6050 -9.63000 
6.01890 -43.5140 -20.6899 
-26.8131 -26.0122 -17.1000 
11.4472 19.9630 1.25000 
19.2476 -19.5360 -1.88000 
-12.9523 -33.7509 -19.1100 
23.3435 -47.4470 -9.81006 
15.9865 -34.6954 -4.41003 
16.8901 -37.5725 -4.50000 
-0.603001 26.9417 1.47998 
-12.1850 -35.8100 -19.4000 
15.0799 -19.7297 -1.81995 
-10.7802 -34.1514 -18.9000 
13.0949 -38.4173 -4.52002 
17.5284 46.0385 -0.880005 
3.71890 38.7181 0.479980 
-2.73210 -1.44000 0.109985 
-2.79450 -3.41500 -0.140015 
11.5890 -35.1188 -4.34998 
3.54000 40.6780 0.439941 
1.49440 28.8361 1.56006 
11.0438 -48.8620 -15.6300 
17.6782 -25.9691 -2.13000 
22.7799 40.8604 1.06995 
3.15640 30.5305 1.51001 
3.11050 -40.0785 -19.1300 
4.68030 -28.4253 -2.19995 
-0.536400 28.6428 1.55005 
19.1319 47.1296 -6.68005 
-30.8278 9.95410 -9.31006 
15.1483 40.7568 0.900024 
-1.79900 32.9967 -0.400024 
9.31660 -25.0807 -2.14001 
21.4122 -45.6210 -24.4200 
-31.5144 4.61150 -10.7300 
-1.23070 -28.0211 -2.12000 
1.29600 30.7711 1.20996 
23.0372 -45.4620 -31.5300 
-15.3430 20.1960 -0.640015 
-7.24220 28.8651 1.20996 
15.5470 45.7423 0.199951 
11.0738 -45.7450 -17.4200 
5.28640 36.6986 2.31006 
16.8053 -45.7810 -22.7200 
-8.77780 14.3077 1.92004 
-28.3366 -14.8584 -4.18005 
-8.76830 12.6643 1.81995 
-9.24620 9.10690 1.82996 
-4.94620 -27.9929 -2.10999 
-30.9693 5.98740 -9.19995 
-28.4944 -23.2875 -17.3900 
-21.1913 -16.4581 -2.67004 
5.60710 7.86090 1.81006 
-25.1106 22.6670 -8.66003 
-18.6866 -22.4426 -5.01001 
0.544100 -41.9434 -17.3600 
-27.0675 -21.7116 -12.8600 
-10.6437 -31.5948 -13.6000 
-26.7973 16.2671 -0.790039 
-14.0159 11.1415 1.79004 
13.8465 -33.8028 -4.34998 
-18.9275 -18.0523 -2.64001 
-30.3152 -2.40480 -3.94995 
24.8923 -1.60900 -0.229980 
-24.7188 18.3648 -0.890015 
25.6174 -18.3512 -1.56995 
-18.6925 -28.4494 -17.0601 
5.31430 -41.8471 -19.1400 
-24.5534 -27.4358 -15.6400 
-8.58150 -35.8330 -17.4900 
17.0867 -46.8990 -7.51001 
-11.1528 10.3833 1.88000 
-20.5958 -25.9990 -9.46997 
-3.10390 10.6572 1.92004 
-22.9223 -14.6385 -2.56995 
-24.6478 -23.8297 -11.5100 
-6.53780 -37.2856 -15.3700 
-20.9895 -26.3229 -11.3300 
-22.3101 -20.9035 -2.14001 
22.9100 -47.3120 -6.76001 
-8.80060 -33.7579 -13.2700 
-15.8775 25.7305 -1.43005 
24.9960 -31.8492 -4.59998 
-8.70340 -33.7233 -9.38000 
12.8008 -45.1220 -20.4800 
0.122000 31.7752 2.06995 
-30.8724 14.4063 -9.08997 
9.18490 26.3769 1.51001 
-10.8052 -35.7842 -18.9600 
23.0346 -44.9070 -29.9800 
13.5381 -35.8171 -4.50000 
-20.9857 -27.2710 -15.5900 
7.14540 -45.9750 -18.9399 
-19.0940 -27.6454 -15.3000 
3.62080 8.15530 1.94995 
-21.3613 -21.4906 -5.03003 
-8.78000 -33.9634 -15.1600 
-20.8998 -14.5001 -2.38000 
-32.5506 3.91460 -11.0000 
-22.9573 -27.3322 -15.4500 
-24.8340 -23.6604 -9.41003 
15.2118 -39.7931 -4.81006 
-5.12200 10.1856 1.84998 
-24.9621 -13.5646 -2.56995 
-16.2547 -16.6551 -2.54004 
27.0642 -18.1616 -1.80005 
24.4751 8.24490 -0.560059 
-20.3890 -27.9662 -16.7800 
14.8898 -37.9762 -4.54004 
13.3559 -45.5400 -7.16003 
-11.8352 5.36860 1.77002 
-13.7830 24.3392 -0.729980 
-12.1738 -32.2089 -19.1300 
-28.1803 -26.1001 -17.2900 
-0.779400 -37.4815 -9.30005 
-19.0177 -27.7983 -13.4000 
-17.6618 11.9798 1.85999 
-4.84370 -16.0458 -2.37000 
9.07900 24.1561 1.46997 
-30.2449 16.1448 -1.64001 
-16.4704 -29.2139 -19.3101 
12.9372 -45.0290 -5.39001 
-18.9163 -19.8818 -2.85999 
4.60910 -36.1371 -6.42004 
-30.0585 -3.76170 -3.07996 
2.74790 -27.4383 -2.08997 
-15.1029 -29.8339 -19.5699 
-30.3813 -7.36740 -7.30005 
-30.0578 -22.2197 -17.1100 
-17.6273 18.9295 -0.569946 
-5.07630 26.2868 1.55005 
-16.5393 3.38890 1.68994 
24.7913 22.3475 0.989990 
-7.00130 -37.8811 -16.6400 
-18.7110 -15.9380 -2.55005 
3.35000 -20.0583 -2.48999 
19.2087 -45.9060 -5.87000 
-12.2511 -29.6406 -7.53003 
15.4408 -16.2713 -2.43005 
-30.1667 -8.46920 -6.05005 
-26.7908 11.5758 -0.689941 
9.21230 20.1865 1.26001 
-13.8692 5.35370 1.88000 
-10.6202 17.8690 1.89001 
16.8646 -45.5670 -5.72998 
-14.7827 -20.0020 -2.69995 
7.79350 45.6790 -3.78003 
-14.4455 -18.1240 -2.52002 
-29.1084 -20.1619 -13.4700 
3.33280 -39.6987 -17.1500 
-16.6885 -18.0320 -2.56995 
-7.17560 26.4220 1.51001 
-18.5653 18.6501 -0.939941 
-30.7554 -11.7509 -8.14001 
17.2440 1.87730 -0.709961 
-16.1970 26.1046 -3.09998 
-25.2606 -19.6580 -4.72998 
7.89600 -43.4560 -13.4700 
-5.11390 16.2118 1.90002 
3.08330 -39.7103 -13.6300 
-6.76420 -27.7574 -2.31995 
-14.3370 -15.9152 -2.56006 
-8.80390 24.5239 1.41003 
-10.4409 -29.7145 -3.89001 
-0.479200 -37.0776 -7.63000 
-3.15850 -37.9736 -11.1100 
-6.97070 -35.7107 -9.25000 
-4.64080 -37.2214 -11.0699 
-4.86080 -35.8240 -7.07996 
-11.0951 -24.0302 -2.09998 
-6.71420 -25.6885 -2.21997 
5.19890 45.8196 -2.56006 
-9.41990 -17.3281 -2.51001 
-9.25760 -15.5531 -2.44995 
-13.8202 3.42450 1.92004 
-13.9670 9.21220 1.81995 
-14.7107 13.8527 1.90002 
6.77610 -43.7730 -19.1000 
12.7342 -21.6256 -2.06995 
-13.4233 8.26510 2.08997 
-13.3973 13.8527 2.06995 
-13.1024 15.8916 2.06006 
-3.81770 12.6984 1.68994 
-22.7639 -15.8185 -2.68005 
-11.5321 8.24900 1.91003 
-8.87890 -3.69860 0.0799561 
-10.9900 12.4916 1.89001 
-10.8864 16.3186 2.03003 
-11.7862 3.43530 1.80005 
21.5632 47.8100 -5.46997 
19.2631 41.9267 0.750000 
24.5352 49.1279 -6.15002 
21.4768 40.4957 1.31995 
23.3489 42.3657 0.630005 
17.4667 15.2968 -0.670044 
24.9190 23.9361 1.05005 
24.4618 42.0934 0.699951 
24.8025 28.1130 1.96997 
1.09400 -25.9184 -1.97998 
-12.0703 35.3436 -6.62000 
9.68900 46.0108 -1.18005 
24.8601 -21.5432 -1.56995 
11.0152 -3.72220 0.0500488 
21.0569 -15.8511 -1.72998 
8.99500 44.5983 0.819946 
8.20100 45.1432 -0.989990 
6.96670 35.4968 1.42004 
-10.8199 -33.5462 -17.5400 
22.9363 -19.6550 -1.88000 
7.07880 28.8872 1.54004 
26.9609 -35.6201 -4.03003 
4.99970 32.4430 1.41003 
12.7648 -5.38970 -0.119995 
28.1485 -37.8183 -4.10999 
19.2862 -38.1267 -4.69995 
9.32200 -5.70160 -0.0699463 
2.64500 13.1995 1.97998 
-6.88320 -35.9138 -11.3900 
6.91750 -1.66500 0.119995 
10.2818 -34.6457 -4.34998 
1.23790 -3.54390 0.109985 
6.78690 -3.49650 0.0699463 
2.72150 44.7752 -8.56006 
23.2324 -15.6440 -1.73999 
7.93890 46.0528 -1.94995 
-12.7188 -31.8189 -17.2400 
17.2799 -21.4337 -1.83997 
18.7285 -3.31740 -0.130005 
22.9420 -45.6410 -5.84998 
7.33960 -19.9570 -2.48999 
10.9873 -37.6017 -4.56995 
9.74970 -34.1488 -4.68994 
6.05780 -43.4650 -9.25000 
-23.0330 -0.115101 -0.650024 
-3.83340 -37.6040 -14.8101 
28.8051 -41.4692 -5.65002 
19.6652 44.4903 -3.38000 
5.21860 -23.3502 -2.58997 
-27.6981 -14.4677 -7.65002 
-6.47710 -7.75850 -0.130005 
-0.740400 -1.51820 -0.699951 
-14.4844 -31.5343 -17.6200 
18.7899 -21.5397 -2.07996 
17.2226 -3.16680 -0.219971 
-6.73580 18.0756 1.92004 
-0.893200 -1.73950 -0.0300293 
1.34170 -15.7666 -2.46997 
-6.68490 20.1289 2.01001 
9.34140 -43.5560 -5.69995 
-9.10120 30.4699 1.06995 
-20.6964 18.1839 -0.849976 
-9.22890 26.5737 1.53003 
-2.94280 0.371201 0.229980 
23.2890 51.8977 -11.2800 
8.63330 -35.9355 -4.69995 
-8.59590 18.1976 1.90002 
-0.265100 -15.8740 -2.47998 
1.12320 -20.0061 -2.71997 
-13.0013 32.2515 -7.00000 
-14.2710 -31.8054 -3.84998 
-9.21440 35.9386 -3.06995 
-27.2527 22.5404 -8.76001 
-9.26620 32.5962 -1.18994 
-10.6155 22.1645 1.94995 
9.14940 18.1203 1.16003 
-30.2839 10.5449 -2.00000 
7.64840 -43.2880 -7.60999 
-10.8941 32.2283 -0.849976 
2.81900 43.2927 -8.55005 
-23.0177 1.88400 -0.599976 
-13.0048 -28.2065 -19.0699 
-29.4975 -14.5170 -11.6000 
18.9045 -47.5240 -6.83997 
-18.3109 -21.2351 -2.14001 
-2.65900 37.9922 -7.10999 
22.7920 28.1061 1.44995 
5.02840 -25.5910 -2.76001 
7.11000 47.1581 -9.60999 
-28.2151 12.1253 0.229980 
9.41210 42.6690 4.07996 
-28.3218 10.4278 -0.0799561 
3.22650 -18.0159 -2.60999 
17.3610 46.5644 -3.41003 
-22.9910 -1.94050 -0.810059 
-8.63950 -31.6910 -3.68994 
-22.9712 3.92920 -0.579956 
6.91030 0.478500 0.150024 
15.1013 46.3204 -4.94995 
-29.0525 18.2441 -5.03003 
21.6280 -23.9852 -1.76001 
-30.2880 -5.53530 -7.55005 
-24.6630 -26.1787 -3.84998 
-27.1254 -17.9735 -5.01001 
-5.33140 34.8706 -4.68994 
-20.8471 10.0713 0.660034 
9.42260 -46.4610 -18.9700 
15.1880 47.8862 -10.0400 
-11.4452 32.3441 -2.60999 
10.9458 -46.8480 -19.3800 
-8.59970 2.12160 0.579956 
-22.4788 17.1934 -0.520020 
-29.0870 18.2636 -7.15002 
-4.84330 2.38680 0.270020 
23.0070 46.8671 -3.22998 
1.24940 -17.6202 -2.46997 
-7.33790 35.3562 -2.06006 
-22.9787 -25.8776 -11.5601 
-32.3766 -1.65060 -9.82996 
-26.4541 -25.3470 -9.17004 
19.6670 -17.4220 -0.229980 
-30.5186 -13.9397 -13.4100 
-32.3292 12.1858 -5.26001 
11.0168 14.0084 1.97998 
13.1122 -39.9046 -4.56006 
-23.1369 -22.0661 -5.29004 
-28.3167 21.9546 -9.51001 
-26.4549 -25.3028 -3.80005 
-10.6926 35.7591 -3.76001 
-29.1641 -17.8650 -11.1200 
-10.5216 -31.8143 -15.4800 
11.2805 46.8450 -7.70996 
-12.6680 33.6754 -5.03003 
-26.2525 21.5873 -1.87000 
17.2963 -19.9247 -1.91003 
5.74480 45.2581 -7.00000 
13.3279 20.4832 1.13000 
-30.1720 12.3444 -1.82996 
1.11850 42.2116 -8.55005 
21.1580 47.1760 -14.6500 
-28.9645 16.5422 0.180054 
-18.8860 -29.6471 -11.9600 
10.0311 -44.9090 -5.52002 
-6.99570 -19.8696 -2.39001 
-14.7082 -21.1943 -2.09998 
-0.962099 16.3703 1.92004 
12.6496 44.5414 -4.29004 
-21.0650 -23.7963 -6.55005 
-0.914400 -23.6921 -2.71997 
-3.00720 -25.7024 -2.88000 
22.7357 -3.76440 -0.0400391 
21.0656 -21.6114 -1.77002 
27.1913 -47.4570 -17.7400 
-27.8730 21.5606 -6.40002 
-20.9240 21.7110 -1.53003 
-8.66720 0.273800 0.160034 
-20.6396 23.5739 -3.78003 
-27.1923 22.1898 -7.80005 
-16.9236 21.5678 0.0899658 
6.71530 44.1496 -0.880005 
23.2139 4.10610 -0.689941 
-22.7005 23.4702 -3.64001 
-32.4025 8.54520 -5.75000 
-27.2392 18.5510 -3.17004 
-12.8053 -21.1975 -1.95996 
-24.3860 6.42770 0.250000 
13.4016 16.2814 0.770020 
8.67740 46.2771 -4.71997 
-12.0900 -33.6292 -18.2500 
24.4221 -19.6535 -1.79004 
-32.6899 11.4055 -11.4000 
17.1535 45.1037 -4.55005 
-32.6150 6.19290 -7.28003 
-29.3216 -13.8719 -9.31995 
23.3460 2.12170 -0.619995 
-32.0203 10.3572 -5.84998 
-27.5506 -12.1204 -4.77002 
-9.42220 -35.6363 -18.9100 
3.09860 26.5071 1.56006 
13.2128 -26.4324 -2.29004 
-5.02690 33.1019 -0.369995 
-11.0927 28.2986 1.06995 
17.0389 44.2113 2.34998 
-28.2174 17.9671 0.310059 
5.29680 -1.51320 0.150024 
-16.8883 -31.7187 -12.8199 
-18.1869 -28.8498 -10.1801 
-25.1955 -15.7898 -3.00000 
-17.9064 -31.2168 -13.0300 
-7.36170 32.6557 -0.510010 
-22.3049 22.0927 -2.90002 
-16.6972 -28.4003 -17.7500 
23.2141 -17.6377 -1.80005 
13.2649 46.7906 -5.41003 
-4.80550 18.3792 1.94995 
-19.0237 -3.80830 -0.709961 
-22.4168 21.7188 -1.52002 
-27.4702 -19.9784 -8.71997 
-2.78730 18.4493 2.01001 
-22.6707 19.7678 0.469971 
-6.55250 0.548500 0.0699463 
-16.7277 -19.9734 -2.70996 
15.0365 -45.6120 -5.66003 
4.26570 41.2565 -2.56006 
-11.3607 34.0786 -2.93005 
22.1436 -48.7670 -10.1000 
-26.7475 22.6153 -3.64001 
-13.6548 -24.5588 -4.84998 
18.7976 4.14350 -0.530029 
-27.2774 -18.3131 -7.26001 
-18.7564 23.8484 -3.76001 
-24.2425 21.8282 -1.75000 
-28.7589 20.2917 -7.46997 
-16.2751 29.9599 -9.45996 
11.1824 46.8528 -5.23999 
-27.0959 6.08720 -0.770020 
-1.29240 -36.8546 -5.43005 
-1.69450 -4.84470 0.229980 
26.7255 -15.5263 -1.88000 
-15.0798 32.0733 -9.20996 
-10.6121 -31.7465 -9.58997 
8.26770 46.1778 3.35999 
-13.3843 32.3903 -8.90002 
20.8540 46.5334 -6.93005 
26.6143 -13.9075 -2.00000 
-13.3028 33.9160 -9.32996 
-12.8218 0.0519981 -0.650024 
-12.7393 33.8341 -6.97998 
15.2711 16.3404 0.869995 
6.40980 44.7720 -4.80005 
18.8446 45.7060 0.310059 
-14.5624 33.2952 -7.35999 
-29.5693 -15.9465 -11.3700 
26.1702 -45.5270 -6.03003 
-4.89760 -19.9097 -2.46997 
9.77560 46.2334 -3.30005 
-5.21610 -17.6059 -2.34998 
-11.6955 34.4868 -5.06006 
-15.1629 -30.1235 -11.3199 
12.8000 46.8588 -3.79004 
-1.23020 -17.1640 -2.73999 
6.02580 -40.7521 -6.20996 
-23.0874 -24.1150 -7.08997 
-3.17190 -23.6041 -2.72998 
-12.1801 -30.8107 -15.4399 
9.23430 46.2480 -7.32996 
-2.87610 -19.8976 -2.62000 
-1.23030 -19.6851 -2.48999 
-15.2641 11.8922 1.85999 
-2.77350 -15.7482 -2.59998 
-25.6020 9.54390 -0.339966 
15.0120 18.4428 0.900024 
16.6052 46.2914 -5.65002 
26.5363 -17.6339 -2.63000 
15.7851 26.1264 1.34998 
-30.2739 -22.0751 -11.2800 
17.4147 25.7600 1.26001 
-7.36210 -17.5647 -2.60999 
14.8757 46.1990 -2.69995 
13.1529 44.1478 2.31995 
19.3250 24.3224 1.33997 
18.6049 29.9146 1.62000 
19.0794 46.6381 -5.56995 
21.4040 29.9881 1.58997 
21.0545 45.9072 0.400024 
21.2237 44.2441 2.40002 
-28.8276 20.0180 -10.9800 
25.0519 -11.7688 -1.76001 
-18.9501 -25.9858 -9.25000 
27.1356 -29.7875 -3.57996 
21.0297 2.25280 0.199951 
11.1922 -45.9110 -14.9399 
23.2960 -13.6947 -1.63000 
-7.36740 -9.93160 -0.160034 
26.9656 -27.8889 -3.67004 
22.9230 -9.74780 -1.42004 
-9.34540 -10.0263 -0.130005 
18.9333 2.51680 0.219971 
8.87140 -11.5764 -1.31006 
-16.5038 26.1189 -5.20996 
14.9087 12.4237 1.91003 
17.2529 -1.48500 -0.130005 
21.2705 -13.8662 -1.65002 
12.8348 45.9700 -1.16003 
25.3126 -13.6720 -1.89001 
19.1819 -11.9061 -1.56995 
14.8864 43.5159 4.05005 
13.2530 12.2785 0.810059 
19.2170 -13.8854 -1.69995 
25.1304 -43.9300 -5.70996 
19.5196 -41.7334 -4.13000 
17.1253 -13.0153 -2.52002 
13.3778 0.384800 0.0400391 
17.0139 -15.5756 -1.76001 
21.1464 -11.8810 -1.57996 
11.5807 39.4786 4.05005 
5.40590 24.3453 1.43994 
9.38540 44.1591 2.12000 
-8.01270 -35.3275 -13.2900 
-26.8830 21.9435 -5.08997 
12.8597 -1.81150 -0.0200195 
-30.0802 -21.7346 -9.20996 
-14.1866 28.0632 -1.31006 
17.1651 -31.6102 -3.55005 
-30.6521 10.0389 -11.0601 
15.0765 47.0736 -7.59998 
-30.8513 4.25620 -7.25000 
10.8520 -1.83830 0.0600586 
13.2234 -19.8208 -1.93005 
6.41220 42.6914 1.39001 
6.84100 40.3935 1.34998 
7.26640 20.4280 1.30005 
5.43050 38.6424 2.18994 
7.31510 18.3750 1.41003 
9.07380 -21.3850 -2.03003 
22.1929 8.73990 -0.400024 
13.0912 -17.7082 -1.92004 
19.2340 46.9544 -15.5400 
-29.2016 -15.7447 -9.41003 
17.0271 -11.2655 -2.35999 
-29.5094 -11.8766 -9.34998 
-4.84000 -25.9364 -2.01001 
4.82980 42.8416 -1.03003 
15.2496 -23.4510 -2.18994 
5.27810 18.5592 1.38000 
15.2160 -21.6089 -2.02002 
3.07390 38.0162 2.19995 
1.06520 18.0058 1.22998 
24.9176 -37.5885 -4.15002 
-10.6164 -31.5636 -11.5400 
-14.4765 24.2320 0.280029 
10.9387 2.30010 0.219971 
23.1174 -39.3258 -4.22998 
5.75130 46.2900 -7.62000 
-29.8373 3.81360 -6.96997 
10.9015 -13.5203 -1.62000 
5.32380 42.2334 2.78003 
-12.6425 30.1815 -1.14001 
5.07800 22.3248 1.53003 
-16.1625 -33.2057 -4.42004 
13.1912 -41.7909 -4.09998 
21.2077 -37.8171 -4.83997 
13.0291 -43.4760 -3.93994 
3.17830 36.3209 0.829956 
-11.6836 -33.2351 -9.78003 
23.0815 -37.5708 -4.08997 
5.14230 0.535099 0.280029 
-15.4313 -13.8262 -2.43005 
4.50800 42.4864 -2.59998 
2.98450 38.5708 -0.770020 
25.5419 -39.2061 -4.06995 
10.9764 -39.6926 -4.06995 
7.11760 24.3830 1.46997 
-30.8217 18.0255 -7.50000 
1.18630 34.3092 0.540039 
-5.13610 -7.43430 -0.199951 
5.25480 -1.44770 -0.640015 
-29.2614 4.28280 -3.40002 
21.0159 0.555401 0.199951 
3.05600 32.3980 2.13000 
19.3664 -2.02400 -0.0899658 
-12.3215 33.5470 -3.30005 
15.2189 45.0750 -0.599976 
2.46750 40.8904 -6.78003 
-20.8361 -19.6075 -2.80005 
11.3683 -45.2710 -5.65002 
-2.75560 31.4625 1.88000 
-0.375700 20.5049 1.40002 
-28.2996 19.4555 -3.25000 
3.23250 0.379200 -0.579956 
23.2975 54.2940 -16.4000 
9.26850 -37.7885 -4.88000 
2.46230 38.5197 -4.71997 
-18.8038 3.33160 -0.510010 
-12.3735 -31.8997 -3.44995 
0.636101 36.6349 -2.69995 
-14.9249 -10.3190 -0.310059 
-32.5887 15.5165 -8.97998 
-2.89900 30.3089 2.19995 
0.705099 5.55840 -0.359985 
-31.8956 -4.29850 -10.2600 
1.06350 -1.55140 0.0300293 
-13.9194 33.7385 -11.5900 
20.8506 -45.6530 -5.77002 
5.10330 -19.8691 -2.52002 
24.5428 49.5301 -5.56995 
16.7869 7.56480 -0.689941 
-12.8979 -27.7342 -17.5100 
19.0900 -17.8693 -1.81995 
2.56410 42.7961 -6.81995 
17.1999 -45.7910 -21.2300 
-4.91720 31.5591 1.97998 
-2.61050 20.5081 1.39001 
5.07460 20.4759 2.16003 
7.13900 -35.7330 -4.82996 
18.8422 -46.9360 -18.9700 
-0.984100 2.45830 0.300049 
-1.10140 0.450901 0.189941 
21.2834 18.2796 1.82996 
6.64860 -38.0087 -6.88000 
-14.3672 -27.2325 -5.23999 
-10.4503 -27.8601 -3.63000 
-3.00240 26.1950 2.19995 
-0.654400 16.5783 1.39001 
19.0195 -10.2658 -2.41003 
-30.1164 -1.91080 -5.76001 
-31.1568 -8.05480 -12.6000 
13.1115 -45.5180 -23.8400 
17.0494 36.2852 2.69995 
-13.1150 -28.0373 -12.9000 
-29.4559 2.15810 -5.26001 
-12.6333 10.3933 1.91003 
-16.8330 24.5618 -5.06006 
1.80600 43.3561 -7.68994 
21.6584 44.9565 -4.56006 
-29.6991 5.67710 -7.12000 
21.1132 -19.9993 -1.91003 
-9.23690 -33.8885 -17.1801 
-18.8716 -0.161499 0.0200195 
25.2559 -17.8333 -2.62000 
-26.8831 2.08510 -1.06006 
-26.8934 -1.86840 -0.109985 
7.28280 0.250702 -0.500000 
-22.8912 4.02450 0.150024 
-11.7216 -29.6200 -11.3600 
10.9811 -35.5801 -3.80005 
-13.1576 -3.99610 -0.699951 
-11.2744 -31.7530 -19.2100 
-14.6376 -27.3644 -7.63000 
-12.7402 6.12560 0.569946 
15.9888 -46.2340 -22.1899 
1.22180 32.3308 2.34998 
-32.6050 14.1545 -8.96997 
17.0585 -3.88660 -1.06995 
27.2148 -43.8950 -7.01001 
-30.5178 -18.0047 -13.3199 
16.9462 26.2396 1.97998 
-20.9867 18.1238 0.660034 
-28.8625 -22.2832 -5.62000 
3.17810 -37.5080 -7.40002 
-25.1057 -25.3330 -7.09998 
19.2064 0.439602 0.0100098 
17.3778 22.3780 1.18994 
-20.8999 0.209900 0.0300293 
16.1532 -46.3960 -8.39001 
5.35840 2.00620 -0.520020 
25.1665 -34.1345 -4.64001 
-25.0078 -11.9527 -1.80005 
-24.8675 16.1324 0.619995 
22.9883 32.1457 2.42004 
10.7483 18.0831 0.959961 
-28.8306 10.1150 -1.50000 
19.0797 -43.7340 -5.38000 
18.9148 -43.1680 -38.6600 
-30.6509 -15.8367 -11.1801 
-18.7362 -25.4647 -5.48999 
11.3125 -27.7626 -2.89001 
8.95280 -17.6379 -1.85999 
17.1999 21.8436 1.88000 
-24.6395 4.37440 0.260010 
-22.8749 -25.6957 -9.51001 
-13.0427 -3.80880 -0.0699463 
-29.6063 -10.0975 -9.46997 
-22.7469 2.10060 0.199951 
9.03890 -44.3280 -21.2400 
-23.2003 -25.8463 -13.2500 
17.0354 17.9059 1.93005 
-2.48870 -39.4964 -15.2000 
-1.05060 34.7057 -1.01001 
-28.8829 -9.78270 -5.56995 
19.2407 12.2340 0.810059 
-30.6702 14.2573 -3.34998 
-32.5558 9.92940 -11.2700 
-32.6522 3.99210 -7.58997 
2.85800 -41.4808 -17.5100 
15.1791 38.2324 2.70996 
11.1183 34.4070 2.68005 
16.3478 47.7172 -12.8199 
-0.910500 2.07080 -0.469971 
-5.21750 -36.4167 -12.7900 
0.872900 -27.7447 -1.96997 
-24.8661 2.10490 0.0699463 
0.410400 36.9226 -4.47998 
9.23130 -43.8890 -18.9000 
-13.1939 -28.1070 -11.3000 
6.37890 -40.4638 -15.6300 
-3.04360 34.3481 -1.20996 
-22.8834 11.9102 0.810059 
-6.99810 -17.7385 -1.80005 
16.6992 40.7335 1.31995 
6.96830 -25.6340 -2.17004 
17.5982 13.7616 -0.660034 
-0.997601 26.1357 2.19995 
-6.77530 16.1883 1.31006 
19.2214 16.1946 0.910034 
-26.4524 -26.0348 -4.94995 
-26.7115 -23.8061 -13.8700 
13.2518 20.1113 2.05005 
-32.7948 7.94280 -10.8300 
1.14740 -15.5780 -1.75000 
3.24240 -23.7952 -2.66003 
19.1709 -41.8605 -5.09998 
23.0200 43.6216 0.780029 
19.1791 -38.9549 -3.96997 
-26.7689 12.2791 0.239990 
-29.7922 -8.30760 -9.43005 
-30.2349 0.0830002 -5.29004 
-5.00070 -21.6557 -2.65002 
11.0076 14.3343 1.08997 
-13.4925 26.2331 -0.849976 
13.1276 -44.7640 -4.26001 
21.0524 -39.9413 -4.84998 
16.9014 32.2525 2.32996 
9.03870 -27.7697 -2.81006 
13.2761 37.5299 4.09998 
3.31970 22.6784 1.40002 
-13.9241 29.5344 -0.900024 
7.29910 42.1665 2.43005 
-16.9008 -25.9798 -7.39001 
-26.9163 -21.6795 -9.17004 
-26.9309 -5.78700 -1.57996 
-31.4765 -1.69680 -10.9900 
-0.936199 -21.5952 -1.90002 
5.32240 8.46050 0.770020 
11.2344 22.1764 2.09998 
3.54930 10.2680 1.92004 
-32.5628 12.0225 -9.31995 
-12.8591 8.33950 0.709961 
-16.7630 3.68100 -0.390015 
1.19610 -31.7370 -3.47998 
5.05480 -37.6538 -7.31995 
-21.1546 -25.6639 -7.54004 
15.3874 0.452202 -0.0100098 
-15.0228 -26.1753 -7.18005 
-30.8475 12.4149 -5.31995 
-16.2994 -29.9410 -4.93994 
-30.5858 -9.84700 -9.50000 
25.0194 23.9546 2.31006 
-30.1958 -5.39570 -5.71997 
8.87240 -21.8176 -2.54004 
18.9677 -46.4920 -8.54004 
21.2853 47.4219 -13.5100 
3.16450 2.37720 -0.510010 
-30.4477 10.3927 -3.48999 
-5.00820 -1.75490 -0.599976 
-20.7389 -26.5883 -14.0601 
19.5564 18.4359 1.93005 
-14.8583 24.1661 -1.37000 
12.4665 -47.3670 -16.9900 
7.09800 12.6388 1.12000 
17.1710 41.9868 2.72998 
-23.0510 -25.5625 -7.33997 
-7.10490 -3.99000 -0.739990 
-24.6978 20.4935 -3.30005 
-0.684700 0.0774994 -0.640015 
3.06940 -15.4995 -1.79004 
1.25840 -38.4297 -15.2700 
22.8903 44.2957 -3.14001 
1.18530 -23.7333 -2.68005 
25.2170 -41.6877 -5.34998 
17.2166 -39.6215 -4.06995 
15.1325 -33.9863 -3.62000 
-12.8667 -2.00500 -0.699951 
-13.0690 -30.2003 -19.3400 
-30.8171 -8.13180 -11.1600 
19.7379 -43.7300 -6.92004 
-9.11450 -9.76510 -1.05005 
12.9951 -43.7360 -5.43005 
14.9649 -42.1380 -3.98999 
-15.0318 -3.81750 -0.650024 
13.0080 -35.9113 -3.72998 
-26.8888 16.0495 0.209961 
-28.6212 20.1715 -5.33997 
-6.80940 -37.7735 -13.1500 
-29.3823 -18.5498 -13.6801 
18.9621 26.1953 1.94995 
7.22240 10.3234 0.920044 
15.1231 -21.9437 -2.67004 
-5.55390 -35.7475 -11.9100 
3.60000 44.4142 -1.63000 
-2.59750 -28.5152 -2.17004 
-14.3057 30.0319 -7.05005 
10.2953 45.9429 -8.71997 
-0.905600 12.3842 1.05005 
-27.1955 -4.47040 -0.180054 
3.19410 -17.5277 -1.94995 
-29.7270 18.4607 -11.3700 
-29.8280 -4.53510 -7.77002 
-25.3195 -25.0542 -11.2300 
-31.2027 -1.74210 -9.27002 
-32.7789 8.23600 -9.18005 
-28.3580 0.222401 -1.44995 
-14.7370 15.9711 1.07996 
-30.4318 18.1057 -12.0900 
-30.3011 -3.38180 -7.62000 
26.3590 -19.9202 -1.68005 
-13.9929 -33.0384 -17.8900 
-30.8794 12.3163 -10.9900 
3.39330 44.3496 -7.07996 
-31.1959 6.12360 -7.46997 
-26.9271 -4.03350 -1.58997 
12.9054 -29.7726 -3.12000 
8.37170 -18.0144 -2.42004 
-17.1444 -6.08730 -0.810059 
-16.9028 -27.9245 -15.3199 
21.1638 -41.9031 -5.06995 
-0.974800 -15.7441 -1.78003 
24.8027 38.8447 2.33997 
19.1578 18.0962 0.930054 
-2.91750 -31.6518 -3.27002 
5.44950 -41.6937 -11.0200 
15.5894 46.1501 -1.65002 
22.9233 48.1585 -5.53003 
1.22160 -25.7329 -2.71997 
12.9572 -1.76430 -0.800049 
9.23490 36.4052 2.62000 
-4.69770 20.1266 2.04004 
-12.8627 -23.7576 -3.38000 
-3.29280 -17.5711 -2.52002 
19.3071 46.5651 -3.43994 
-20.5520 -27.5157 -11.2600 
-32.4121 4.42310 -9.10999 
-20.8969 11.9397 0.760010 
-8.99420 -17.8530 -1.76001 
24.7517 6.30320 -0.900024 
3.28830 16.6251 1.89001 
-25.1267 -19.7706 -3.33997 
15.1764 22.3503 1.31995 
-26.6693 0.0428009 -0.0300293 
-23.0453 -11.7158 -1.48999 
-12.7229 31.8520 -3.22998 
11.4043 12.3313 1.01001 
-4.65320 -39.5676 -14.2200 
-14.4348 -26.9708 -18.8500 
-14.5622 26.1784 -1.29004 
-2.80030 -21.8846 -2.59998 
9.08330 14.3396 1.07996 
20.9904 -1.52930 -0.0100098 
9.01150 6.50010 0.479980 
-8.37190 -35.3955 -4.75000 
-11.0536 30.1307 0.959961 
-32.4536 -14.9770 -13.1801 
27.4349 -47.5320 -11.1600 
14.9891 28.2002 2.04004 
-6.77680 -35.9915 -13.4900 
-28.5812 -21.9957 -15.4700 
10.8785 -20.5533 -2.64001 
-18.7946 -7.88760 -0.839966 
11.3001 -31.9416 -3.47998 
14.8366 -3.86490 -0.780029 
-28.9382 8.16350 -1.54004 
-11.6039 -28.6853 -7.88000 
-0.893900 6.38980 0.630005 
3.10840 -1.55660 0.0500488 
-30.8842 -3.81450 -9.38000 
25.0832 -19.8524 -2.82996 
-16.8539 27.7913 -9.42004 
22.9126 6.17360 0.290039 
-28.5690 18.1232 -1.19995 
26.3882 -47.2050 -7.78003 
24.9597 -5.82930 -1.27002 
-1.18040 -41.5653 -14.6100 
-2.98370 -15.8644 -1.76001 
9.34440 34.3469 2.53003 
6.98400 26.3354 2.14001 
2.96160 40.4106 -4.91003 
-8.77080 22.0777 2.06995 
-30.3756 2.15100 -5.28003 
-14.8518 -27.8883 -13.3600 
14.3122 -45.5740 -23.2300 
7.27850 36.4098 2.50000 
-29.3925 7.47090 -4.97998 
-20.6105 -23.9691 -5.18994 
15.3072 -45.7530 -7.25000 
-14.8785 -11.8808 -1.12000 
-3.23090 -38.1442 -13.5300 
-6.73280 4.01690 0.479980 
-20.9671 -13.8171 -1.55005 
-10.8011 -35.4725 -5.34998 
-6.61770 12.2086 1.94995 
-26.8914 -15.8469 -3.51001 
19.1125 -18.0127 -2.56995 
-11.0219 -5.67890 -0.810059 
7.19380 -29.8475 -3.09998 
-15.0102 -28.0062 -15.4100 
-28.6267 -3.94780 -3.51001 
-18.9299 -29.0343 -16.0900 
23.2266 0.0315018 -0.839966 
-16.0040 -30.9857 -12.1400 
-6.65530 2.18470 0.369995 
-28.7402 -1.73800 -3.39001 
-7.26700 11.0346 1.97998 
-26.8201 -13.7534 -3.17004 
-16.7620 -29.5036 -17.2000 
14.9901 -15.8619 -1.81995 
21.2932 16.4237 1.88000 
22.9446 38.3579 2.50000 
-18.9180 6.05790 0.229980 
-16.6885 18.2014 0.630005 
-25.1856 5.92770 -0.510010 
-7.00330 -29.7221 -3.31995 
21.4264 8.16980 0.569946 
-24.4088 -19.7110 -2.12000 
-26.7996 20.2777 -1.14001 
11.2013 6.26390 0.410034 
-0.983801 35.6602 -1.41003 
14.8857 44.3485 1.08997 
-22.9935 -18.0326 -2.84998 
4.95490 -3.34180 -0.859985 
-1.06710 -21.9299 -2.72998 
7.03080 14.5170 1.17004 
-5.80350 -29.4138 -1.79004 
-30.9669 15.5999 -7.31995 
-30.9897 -9.89610 -11.4600 
-31.0298 18.4871 -9.33997 
1.03200 20.1646 2.06006 
15.0322 36.1455 2.70996 
-29.5879 9.63790 -7.17004 
5.28230 16.2666 1.27002 
-29.4114 -7.66500 -7.55005 
-17.0061 -29.6163 -11.2400 
-32.4153 2.60270 -9.00000 
0.927401 -5.69060 -0.939941 
21.6360 20.5021 2.04004 
27.1509 -37.1387 -4.27002 
-25.0649 -21.8140 -5.30005 
16.8339 27.7668 1.54004 
-30.4070 -19.9141 -11.4399 
-25.0234 -23.8549 -13.2000 
15.2970 19.9552 2.03003 
-7.00560 -34.1656 -9.12000 
-18.9381 10.2035 0.630005 
-30.8065 6.08070 -5.32996 
9.19260 24.2769 2.23999 
28.7925 -43.5550 -7.14001 
-13.0736 30.1910 -2.91003 
16.9917 9.86940 1.73999 
-18.5065 24.1157 -5.13000 
-18.8015 -31.6219 -4.77002 
3.63690 -38.7586 -7.92004 
22.1865 -8.45360 -2.38000 
-1.05990 -9.64030 -1.21997 
10.9851 -7.66470 -1.17004 
-10.6503 -19.8574 -2.52002 
3.51190 40.4449 -3.19995 
2.95680 34.5860 0.859985 
-27.0052 -19.9445 -5.25000 
-18.6277 -27.3925 -9.66003 
1.14460 18.2709 1.91003 
-2.97330 -36.1670 -7.47998 
-16.7939 14.2579 1.08997 
-12.4866 16.1425 1.21997 
8.81750 26.3510 2.34998 
19.1189 6.19580 0.420044 
20.8112 -20.0691 -2.77002 
-6.65610 -35.6106 -7.31995 
-2.85450 -35.4394 -5.56995 
-6.86420 22.1694 2.08997 
10.9523 -45.5720 -11.1200 
-28.8264 6.18410 -1.63000 
-25.1948 -21.7630 -6.88000 
19.6696 13.7454 1.75000 
3.10900 -7.57930 -1.00000 
13.1529 -0.0423012 -0.770020 
-9.65600 -30.5592 -14.4100 
13.5682 46.7231 -8.15002 
-9.16440 -31.8166 -15.4000 
-22.7876 18.3296 -0.839966 
-24.7854 -17.9252 -2.16003 
16.9276 13.1096 1.90002 
-15.1449 25.9797 -5.04004 
-4.93360 -34.7236 -2.21997 
-6.78380 12.2272 1.06995 
-26.6700 -22.8192 -4.02002 
-26.6696 -23.5606 -15.3900 
5.21640 -39.5979 -13.4399 
-20.5929 22.0833 -3.13000 
-10.5512 14.0215 1.02002 
-18.9114 -25.8675 -7.43994 
0.951401 2.17600 -0.609985 
13.4435 -46.3340 -9.26001 
-10.7472 -1.62640 0.0400391 
12.8642 -5.70280 -0.900024 
3.31010 -41.7000 -15.7900 
11.1814 8.37790 0.650024 
-11.1564 -33.5736 -20.8800 
-14.7901 18.1796 0.969971 
-29.9627 -21.7004 -15.9500 
-17.1101 -7.98670 -0.750000 
9.54670 -19.7994 -2.54004 
-18.7719 0.428200 -0.739990 
9.05830 -43.5480 -9.12000 
-27.0208 13.7330 -0.589966 
25.4330 45.6461 -4.53003 
7.15500 6.32690 0.479980 
-6.61600 -35.3979 -4.59998 
-11.2564 -30.0003 -13.3900 
-24.9336 -21.7900 -3.54004 
14.9874 34.1485 2.53003 
-24.5365 -25.7180 -15.0900 
7.22360 -41.7574 -13.4000 
-6.44290 -33.8209 -1.93994 
-8.98230 10.1207 0.819946 
11.0496 -29.8062 -3.06995 
3.19540 -38.2220 -11.4600 
-16.6955 -27.3763 -9.57996 
-24.5313 -25.4255 -13.2100 
15.0804 17.8546 1.97998 
-12.4510 -31.5374 -21.0300 
-28.1878 -20.0388 -5.59998 
-4.93060 26.1819 2.28003 
-13.8080 28.1248 -6.20996 
-2.64380 16.3066 1.37000 
3.18750 18.3468 1.45996 
9.15710 38.2271 2.69995 
-0.951401 10.3600 0.900024 
-29.1284 -13.9131 -7.35999 
-3.73360 -6.91840 -0.0300293 
2.86730 -1.64000 -0.650024 
1.00430 -37.6265 -11.5000 
15.0783 32.0726 2.45996 
-7.69300 -33.6098 -15.8700 
-7.04110 0.0512009 -0.579956 
20.5709 -45.4670 -27.7400 
6.87690 -7.65770 -1.06006 
25.1416 -31.8025 -3.60999 
8.96130 -25.8421 -2.80005 
-15.2811 28.5418 -10.7700 
-5.99340 35.3521 -6.18994 
-30.5309 4.35870 -5.55005 
-4.90840 -34.3371 -8.20996 
-10.8397 17.9491 1.31995 
6.83510 -11.4100 -1.38000 
-4.95990 -35.7598 -9.46997 
9.04520 8.36540 0.719971 
-4.98300 -21.8664 -1.81006 
3.24630 -21.6104 -2.56995 
19.2570 14.3164 0.839966 
3.32930 -25.8839 -2.83997 
3.47400 -39.4710 -11.4600 
-3.51470 -36.1447 -11.2700 
-22.8689 -13.6146 -1.69995 
-9.18990 -28.2071 -2.22998 
-13.4830 30.5154 -6.76001 
-10.9692 -11.8298 -1.13000 
5.18120 22.2125 2.16003 
24.9844 -15.7981 -2.57996 
7.26310 30.4327 2.33997 
-1.08830 33.9161 0.339966 
11.1190 40.3157 2.69995 
21.0703 26.3559 1.95996 
-30.3633 2.09140 -3.89001 
17.0447 34.2956 2.53003 
-30.6128 16.1991 -5.51001 
-6.96000 30.0370 2.12000 
-12.7670 -31.6051 -9.56006 
-18.6588 -2.06200 -0.0899658 
-12.5251 -27.3876 -3.50000 
-12.4299 -27.5941 -5.56006 
14.8792 -11.7187 -1.52002 
11.0210 42.3060 4.17004 
-10.9279 10.2268 0.939941 
-14.6008 28.2173 -7.09998 
24.5861 30.2420 2.10999 
-2.39850 -35.9521 -9.55005 
-4.57610 -35.3712 -5.07996 
-8.90620 18.0135 1.30005 
-25.8286 -7.81800 -2.60999 
-8.80640 20.1269 1.96997 
-0.832001 4.36740 0.410034 
21.0327 -14.1836 -2.45996 
-4.74040 8.23360 0.689941 
20.9154 -5.98250 -1.15002 
-12.8054 1.61600 -0.670044 
-4.76690 -33.8970 -5.22998 
21.4891 -44.0240 -6.79004 
-6.95410 -9.87480 -1.17004 
0.0979996 35.7234 0.0200195 
-31.0301 14.1180 -7.20996 
18.9628 44.3504 -1.30005 
-16.9455 -21.9751 -3.16003 
-8.60840 14.1346 1.06006 
-6.96730 35.7094 -3.10999 
-26.7624 4.24720 -0.800049 
19.2195 41.9599 2.64001 
1.12760 10.3925 0.890015 
-8.88090 28.1802 2.10999 
0.989201 43.7417 -9.25000 
13.2027 2.27430 0.0500488 
-18.8285 -19.7622 -1.91003 
26.8461 -31.6460 -3.81006 
21.5828 13.6650 1.73999 
-3.05370 -7.55920 -0.949951 
7.47580 -35.7381 -3.80005 
-17.1022 -3.78320 -0.719971 
-7.03600 -11.8674 -1.35999 
4.77950 -38.6504 -14.3000 
21.2953 10.2400 0.560059 
-29.5431 11.6154 -3.46997 
-6.74490 8.30360 0.859985 
-7.42490 -33.6883 -14.0100 
-31.0581 12.4915 -9.48999 
3.37530 10.5223 0.979980 
-9.04100 0.184700 -0.510010 
28.1913 -46.1600 -10.5800 
2.81220 -38.2389 -13.4200 
15.0861 1.87250 -0.619995 
-14.7950 26.1275 -3.25000 
-22.8838 18.1378 0.489990 
-5.01200 -27.7938 -2.85999 
9.05670 -47.2940 -19.5500 
-10.6829 2.13670 0.160034 
11.1768 -23.8800 -2.63000 
-6.84500 -32.0532 -5.01001 
15.2053 -46.2680 -18.1200 
-18.5350 21.8742 -1.60999 
6.54160 -39.7681 -11.7500 
-8.84970 -25.7951 -2.93005 
-20.9546 -1.84370 -0.0400391 
21.0798 24.1171 1.45996 
-7.43860 -35.6865 -17.1300 
11.6229 -46.0810 -4.31006 
26.7233 -39.9549 -5.10999 
-32.3508 -17.0819 -13.5800 
14.8433 26.2053 1.94995 
-22.7941 0.202702 0.0400391 
19.2521 22.1541 1.26001 
-27.6982 -20.1521 -11.4700 
-27.1567 -6.00080 -0.150024 
20.6262 27.9724 1.50000 
6.89040 -19.5359 -2.01001 
22.7766 -5.90800 -1.12000 
-22.6648 -23.7001 -3.65002 
17.1671 -42.0215 -5.15002 
21.2050 4.08460 0.140015 
25.3023 -45.9100 -9.28003 
-2.53870 2.10470 -0.489990 
-31.3049 12.2859 -7.39001 
0.865700 4.11350 -0.369995 
0.645300 -5.28090 0.140015 
-6.91490 -15.8395 -1.64001 
27.4725 -39.0882 -4.16003 
5.15310 -31.4797 -3.39001 
-4.07600 4.05620 -0.430054 
-2.66830 28.3874 1.39001 
-19.0673 20.5046 -1.10999 
-29.0095 -20.6050 -14.6300 
1.28220 -29.6795 -3.03003 
-11.4835 30.8231 -0.670044 
-8.02570 -37.6458 -18.0300 
23.1916 22.0636 1.15002 
13.2068 18.0199 2.12000 
-10.4609 15.9846 1.13000 
-11.1194 -29.8686 -7.45996 
2.88100 26.3059 2.21997 
-29.4735 -1.60240 -5.38000 
24.9251 -10.3688 -2.55005 
7.13560 32.3900 2.31995 
-11.0019 -27.9063 -5.39001 
17.0282 -11.8187 -1.67004 
-10.7711 24.1464 1.94995 
-6.84000 -2.06810 -0.579956 
17.0723 -33.6773 -3.73999 
-10.8372 -17.9554 -1.68994 
-4.57390 -1.67400 0.189941 
-18.7427 12.0948 0.920044 
-15.1049 -26.5191 -8.68994 
23.0664 -29.8152 -3.58997 
25.0673 19.5894 1.88000 
5.16890 -5.59100 -1.03003 
17.1951 43.5874 -2.35999 
-5.44490 -37.7889 -15.1400 
-5.16160 -23.6461 -2.79004 
27.0926 -41.8443 -5.46997 
-14.9442 -6.12140 -0.270020 
8.93850 -15.6123 -1.80005 
-15.1036 -7.78340 -0.790039 
15.0696 -32.0241 -3.45996 
22.8226 28.3122 2.10999 
-30.9417 7.89560 -9.28003 
-7.53010 -13.7038 -0.209961 
-8.83300 8.10590 0.739990 
14.8322 -37.7490 -3.90002 
24.5939 10.1475 0.369995 
13.8788 47.0311 -14.7400 
-20.7859 15.9407 0.800049 
-27.4618 -16.2238 -5.07996 
23.2017 22.8218 1.78003 
25.0467 -12.2665 -2.53003 
-28.7018 -19.7262 -9.59998 
24.7452 16.2221 0.829956 
-8.78190 26.2544 2.23999 
-32.6053 10.4566 -7.28003 
1.00360 16.4287 1.46997 
-8.76650 33.4756 -5.75000 
-29.2389 5.52910 -4.88000 
5.53350 -45.0280 -18.6700 
-16.7941 9.98280 0.770020 
11.0550 44.5914 1.19995 
2.87560 36.4796 -0.790039 
-4.70320 24.1102 2.21997 
-19.0511 22.8835 -4.80005 
0.991100 38.8243 -7.06995 
24.9755 -3.87910 -0.979980 
-29.9594 19.4764 -7.17004 
-30.6356 -13.8275 -11.0300 
21.0226 -35.6821 -3.93005 
-28.3879 -4.05950 -1.79004 
21.0228 6.03000 0.349976 
23.0277 -19.8937 -2.76001 
20.8780 4.04170 -0.630005 
-18.8762 -24.1507 -4.98999 
24.4996 -44.9090 -23.5800 
-30.0584 17.8558 -5.65002 
12.9405 36.1663 2.91003 
25.1385 -37.9594 -4.77002 
21.1586 -29.7996 -3.34998 
7.12080 -5.59900 -0.959961 
-1.19060 30.2847 2.12000 
-19.0005 -15.9523 -1.62000 
-10.9518 -5.77740 -0.0600586 
-1.29770 36.9197 -4.78003 
-31.3570 4.01310 -9.28003 
-14.8305 -27.8641 -11.4000 
4.97460 -39.8778 -15.4700 
-9.04220 34.1594 -0.949951 
23.0726 -35.8901 -3.97998 
25.3661 -15.9182 -1.94995 
8.78740 -43.8290 -15.1500 
21.4237 -45.5990 -7.21997 
-1.07990 -3.67800 -0.640015 
-21.0330 -9.76900 -1.12000 
-6.89050 20.0149 1.46997 
-24.5612 20.1721 -1.25000 
-27.9816 -23.6985 -5.78003 
-28.6938 4.12610 -1.51001 
-5.01720 35.9545 -3.44995 
17.1462 -39.9235 -4.83997 
21.1118 16.2791 0.770020 
15.1048 -13.8305 -1.77002 
-24.8362 -15.9111 -1.85999 
11.5149 16.4428 1.13000 
-31.3299 10.2932 -7.46997 
-20.6558 -28.9054 -10.2500 
25.2304 -25.8000 -3.29004 
-16.7458 29.4612 -10.6899 
7.11880 -31.7745 -3.40002 
-2.87130 -9.68590 -1.16003 
23.2563 20.2050 1.05005 
25.1481 -39.8181 -5.04004 
-18.7889 4.21250 0.199951 
-16.9866 -13.7857 -1.32996 
-8.93740 -19.8127 -1.93994 
27.0485 -33.6153 -4.00000 
-27.4636 -12.7486 -2.27002 
12.9560 -21.9595 -2.60999 
17.3605 20.1129 0.920044 
23.0627 40.0597 2.37000 
-30.4024 19.4718 -8.73999 
5.00490 18.4276 1.97998 
-0.928900 -27.5591 -2.84998 
15.1612 41.9318 4.12000 
17.1717 10.1338 0.670044 
-4.37410 -37.2398 -9.58997 
22.8718 36.2712 2.64001 
5.20640 10.3282 0.939941 
-14.7998 -33.4465 -9.48999 
26.7361 -31.2496 -4.53003 
11.2996 -37.7944 -4.01001 
19.1196 44.0874 2.56006 
-28.7190 16.2059 -1.25000 
-12.9540 3.96910 0.329956 
-6.67560 -13.8786 -1.55005 
-22.9698 -9.85870 -1.25000 
23.0527 -39.7848 -4.89001 
21.1744 6.09200 -0.689941 
14.9586 16.2558 1.98999 
23.1733 18.2904 0.959961 
21.0738 38.1397 2.68994 
13.0637 -33.8149 -3.47998 
-11.0003 -1.97700 -0.560059 
23.3221 26.3963 1.41003 
-4.79630 22.1738 2.15002 
25.3186 -23.7011 -3.15002 
-18.9057 2.16540 0.140015 
-1.55450 -6.98160 -0.150024 
24.9042 -2.04190 -0.920044 
-10.8476 -21.8906 -2.60999 
1.21670 14.4439 1.20996 
-24.8161 21.8419 -2.58997 
-30.9782 -11.8709 -11.1300 
7.03790 -41.7640 -15.5800 
4.86820 -43.9300 -18.5400 
-24.6796 19.8726 0.229980 
-2.77830 37.0169 -5.30005 
24.6676 7.96060 0.310059 
-22.5537 20.2550 -1.25000 
23.1235 24.0222 1.31006 
7.02330 -13.6003 -1.62000 
-10.8934 4.07800 0.430054 
9.26890 20.6475 2.04004 
21.0721 47.5232 -9.31006 
-22.7627 9.85830 0.540039 
-27.9098 -23.2403 -13.0100 
11.1044 19.7745 2.17004 
24.8775 -0.0810013 -0.780029 
-28.7733 -6.00810 -3.52002 
-14.5434 -31.7705 -11.8101 
-16.9160 1.98760 0.189941 
26.8438 -23.7575 -3.20996 
-14.9727 -9.86070 -1.03003 
-29.3968 16.3944 -4.90002 
-16.7916 1.78060 -0.369995 
-8.45920 -33.6135 -5.39001 
-17.0284 -29.2570 -15.0400 
21.1385 -0.0861015 -0.750000 
-30.5695 -17.8165 -11.4900 
1.08910 -21.8023 -2.55005 
21.2608 14.2054 0.770020 
-30.6786 -1.87810 -7.43005 
22.9753 -11.7969 -1.55005 
-27.4551 -13.8631 -4.85999 
-26.8432 6.25250 0.0999756 
5.62890 44.1363 0.469971 
-21.1413 -5.93480 -0.810059 
-32.6503 6.25660 -9.16003 
-28.6121 2.17850 -1.51001 
-8.77260 -22.0847 -2.12000 
13.3239 8.23150 0.630005 
4.42720 -41.7518 -20.6200 
-2.79720 -37.2590 -9.59998 
21.0204 36.1772 2.71997 
24.6895 14.1202 0.599976 
11.0749 -11.6384 -1.48999 
-8.41580 -34.7210 -11.5500 
8.89440 -1.56920 0.119995 
11.0510 26.3290 2.08997 
-18.6074 16.1923 0.819946 
24.6350 22.0026 1.96997 
22.9395 -11.7381 -2.54004 
1.07720 24.3953 2.14001 
-28.4882 -17.7358 -5.48999 
25.1269 -21.8505 -2.94995 
-18.8224 14.0606 0.869995 
-12.3985 -34.9271 -6.10999 
3.11410 -36.2142 -7.15002 
-14.0191 -31.5340 -13.8600 
24.5711 -8.25760 -2.32996 
-8.98350 10.5924 1.90002 
-28.3565 -14.3806 -3.69995 
-20.9310 23.9126 -5.56006 
23.2485 44.1747 -1.06995 
-10.8912 20.0384 1.41003 
-24.9255 -25.7536 -8.97998 
5.58520 -43.8720 -17.1700 
23.0321 32.5339 1.60999 
25.1827 -35.7711 -3.94995 
-12.8101 -19.8486 -1.93005 
23.2053 -33.8654 -3.88000 
4.92960 -9.50320 -1.14001 
-19.0307 -9.91960 -0.989990 
21.1500 46.9825 -5.20996 
-24.7336 18.1451 0.660034 
-30.8507 10.4083 -5.53003 
24.8219 1.87530 -0.640015 
-10.6542 -3.77530 0.0400391 
-11.0962 3.89500 -0.420044 
-5.04950 -31.5891 -3.43994 
12.9243 43.3911 4.25000 
-12.8931 12.0587 1.01001 
-27.6741 0.284199 -3.09998 
25.4855 -47.2270 -11.6400 
25.1525 -27.7789 -3.43994 
-20.6518 -27.3809 -9.46997 
11.1393 18.0814 2.06995 
-11.3056 -9.74010 -0.150024 
-1.06850 -38.0038 -11.5500 
-8.85020 -33.7709 -11.3600 
-12.9565 22.3348 0.849976 
13.0728 -48.9490 -11.6600 
0.701099 26.2969 2.23999 
-4.66510 16.2197 1.32996 
-0.893900 20.5760 2.01001 
7.10020 4.57620 0.359985 
-22.6311 5.89800 0.270020 
17.7074 -45.9740 -18.0000 
-16.6036 22.3159 -1.50000 
-8.81580 -31.8058 -5.16003 
8.80670 2.41380 0.160034 
12.0576 -46.8040 -9.77002 
20.8859 -23.8514 -2.90002 
27.0902 -36.2538 -4.78003 
22.8590 -3.74480 -0.949951 
23.1013 16.1808 0.829956 
-2.92100 -35.1380 -3.42004 
3.16660 -23.6442 -2.03003 
-18.6621 -4.10390 -0.0999756 
-4.99650 -17.7623 -1.73999 
8.73250 44.1608 4.01001 
-24.7764 12.2177 0.569946 
17.3317 -29.8104 -3.22998 
-13.1260 -6.03340 -0.859985 
-30.1550 -0.446499 -3.31995 
21.0936 28.1604 2.09998 
-4.78540 28.6183 1.29004 
-20.8252 20.5380 -1.20996 
15.5722 -13.3157 -2.44995 
-9.05750 -29.9599 -5.06006 
-0.904900 -29.7692 -3.09998 
-24.7401 3.85300 -0.699951 
-1.09730 36.1463 -3.17004 
-6.80700 -31.4330 -3.38000 
26.8329 -25.8518 -3.25000 
-11.3605 -29.9568 -9.43005 
19.1735 30.1000 2.22998 
21.1370 30.3197 2.31995 
0.745701 -36.3445 -9.17004 
-27.7163 1.62750 -2.71997 
-14.8768 28.2524 -9.06995 
24.4373 6.11740 0.260010 
-26.7832 18.5725 -1.10999 
9.81910 -45.3040 -7.60999 
-30.5893 16.0860 -3.42004 
18.8654 -3.97070 -1.00000 
23.1439 -17.8878 -2.75000 
